5.8315002e+02   5.8221545e+02   5.8095679e+02   5.7994885e+02   5.7820300e+02   5.7417188e+02   5.5719458e+02   5.5518604e+02   5.5518597e+02   5.5536865e+02   5.4754834e+02   5.2759778e+02   5.2747571e+02   5.2715002e+02   5.2652808e+02   5.2230334e+02   5.1249536e+02   5.0014999e+02   5.0011969e+02   4.8413202e+02   4.8212411e+02   4.8149530e+02   4.8027493e+02   4.7470416e+02   4.5314999e+02   4.5214999e+02   4.5214999e+02   4.5075366e+02   4.3949536e+02   4.3590796e+02   4.2494049e+02   4.2257321e+02   4.0580463e+02   4.0608228e+02   4.0328629e+02   3.9895215e+02   3.8414999e+02   3.8042630e+02   3.6831824e+02   3.6226367e+02   3.5962103e+02   3.5814999e+02   3.4314999e+02   3.4314999e+02   3.4282132e+02   3.2627225e+02   3.2422592e+02   3.1414999e+02   3.1336514e+02   3.1055005e+02   3.0640765e+02   2.9678271e+02   2.9015305e+02   2.8448264e+02   2.7734021e+02   2.7602670e+02   2.7551376e+02   2.6550546e+02   2.6514999e+02   2.5782132e+02   2.5260440e+02   2.5084460e+02   2.4370050e+02   2.3674515e+02   2.2506497e+02   2.2129840e+02   2.1337257e+02   2.1028613e+02   2.0993661e+02   2.0914999e+02   2.0340919e+02   1.9284201e+02   1.7949532e+02   1.7714999e+02   1.7060233e+02   1.6923058e+02   1.5978552e+02   1.5029034e+02   1.4552589e+02   1.3761748e+02   1.3373289e+02   1.3207211e+02   1.2843562e+02   1.2021956e+02   1.1987007e+02   1.1915000e+02   1.1315000e+02   1.1024741e+02   1.0829118e+02   1.0409647e+02   1.0119044e+02   9.9186272e+01   9.8150002e+01   9.7150002e+01   9.7150002e+01   9.7150002e+01   9.5150002e+01   9.5150002e+01   8.9170723e+01   8.8158669e+01   8.7150002e+01   8.6804680e+01   8.7132004e+01   8.6150002e+01   8.2150002e+01   8.2150002e+01   8.2150002e+01   8.2150002e+01   7.7704918e+01   7.4731453e+01   7.5150002e+01   7.3925087e+01   7.1150002e+01   7.1150002e+01   7.1150002e+01   7.0965889e+01   7.0150002e+01   6.8150002e+01   6.7929756e+01   6.6150002e+01   6.1150002e+01   6.0406792e+01   6.0150005e+01   5.8646904e+01   5.8150002e+01   5.8150002e+01   5.7385979e+01   5.6263512e+01   4.9809273e+01   4.8150002e+01   4.7150002e+01   4.7150002e+01   4.7150002e+01   4.7150005e+01   4.6736977e+01   4.3449562e+01   4.0150002e+01   3.8340210e+01   3.8150002e+01   3.8150002e+01   3.8150002e+01   3.8150002e+01   3.5150002e+01   3.4330070e+01   3.4844597e+01   3.1150000e+01   3.1150000e+01   2.8150000e+01   2.8150000e+01   2.7556221e+01   2.7150000e+01   2.2150000e+01   2.1367521e+01   2.0928324e+01   2.0150000e+01   1.7150000e+01   1.6706062e+01   6.9403734e+00   2.9075227e+00   1.3370851e+00             NaN             NaN             NaN             NaN             NaN             NaN             NaN             NaN             NaN             NaN             NaN             NaN             NaN             NaN             NaN             NaN             NaN             NaN             NaN             NaN             NaN             NaN             NaN             NaN             NaN             NaN
6.0449298e+02   5.8719470e+02   5.8486792e+02   5.8431531e+02   5.8420258e+02   5.7756097e+02   5.6011304e+02   5.5783594e+02   5.5722205e+02   5.5715002e+02   5.5439294e+02   5.4756189e+02   5.2889276e+02   5.2915002e+02   5.2878558e+02   5.2551367e+02   5.1514435e+02   5.1280688e+02   5.0214999e+02   4.9655225e+02   4.8447937e+02   4.8283588e+02   4.8209335e+02   4.7946698e+02   4.7357349e+02   4.5460208e+02   4.5214999e+02   4.5214996e+02   4.4210336e+02   4.4105276e+02   4.2514999e+02   4.2156967e+02   4.0894806e+02   4.0574545e+02   4.0446207e+02   4.0415005e+02   3.9326736e+02   3.8640912e+02   3.7804306e+02   3.6976984e+02   3.5973969e+02   3.5939264e+02   3.4929819e+02   3.4383588e+02   3.4349292e+02   3.4249295e+02   3.3014999e+02   3.2376511e+02   3.1558826e+02   3.1098825e+02   3.0814999e+02   3.0552176e+02   3.0429578e+02   2.9053604e+02   2.9014999e+02   2.8288599e+02   2.7636575e+02   2.6902692e+02   2.6532236e+02   2.6549292e+02   2.5662701e+02   2.5212700e+02   2.4405768e+02   2.3749292e+02   2.2629758e+02   2.2614999e+02   2.2314999e+02   2.1075195e+02   2.0928105e+02   2.0914999e+02   2.0451843e+02   1.9318495e+02   1.8114999e+02   1.7781633e+02   1.7269653e+02   1.7089288e+02   1.6778293e+02   1.5514999e+02   1.4849294e+02   1.4383588e+02   1.4083397e+02   1.4083588e+02   1.3871243e+02   1.2840704e+02   1.1902526e+02   1.1780706e+02   1.1442388e+02   1.1055714e+02   1.0871430e+02   1.0479182e+02   1.0256988e+02   1.0025504e+02   9.8242989e+01   9.7230934e+01   9.7150002e+01   9.7150002e+01   9.5150002e+01   9.4182747e+01   8.9506554e+01   8.8498634e+01   8.7150002e+01   8.6150002e+01   8.6177498e+01   8.6150002e+01   8.2150002e+01   8.2150002e+01   8.2150002e+01   8.2150002e+01   7.6050240e+01   7.4566429e+01   7.5150002e+01   7.3150002e+01   7.1150002e+01   7.1150002e+01   7.1150002e+01   7.0150002e+01   7.0150002e+01   6.8150002e+01   6.7662346e+01   6.5453102e+01   6.2150002e+01   6.0894981e+01   6.0150002e+01   5.8150002e+01   5.8150002e+01   5.8150002e+01   5.7833351e+01   5.6919785e+01   5.0378307e+01   4.8371960e+01   4.7910286e+01   4.7363693e+01   4.7615108e+01   4.7150002e+01   4.7150002e+01   4.3449562e+01   4.0150002e+01   3.8150002e+01   3.8150002e+01   3.8150002e+01   3.8150002e+01   3.8150002e+01   3.5150002e+01   3.5150002e+01   3.5150002e+01   3.1150000e+01   3.1150000e+01   2.7807058e+01   2.7807058e+01   2.6946367e+01   2.6734488e+01   2.2150000e+01   2.1150000e+01   2.0150000e+01   1.7842016e+01   1.7150000e+01   1.6361506e+01   3.9133279e+00   2.1500001e+00   1.1500000e+00             NaN             NaN             NaN             NaN             NaN             NaN             NaN             NaN             NaN             NaN             NaN             NaN             NaN             NaN             NaN             NaN             NaN             NaN             NaN             NaN             NaN             NaN             NaN             NaN             NaN             NaN
6.0819330e+02   6.0508093e+02   5.8703308e+02   5.8654321e+02   5.8625110e+02   5.8486060e+02   5.7751294e+02   5.6015002e+02   5.6008075e+02   5.5915002e+02   5.5654395e+02   5.5233295e+02   5.3287268e+02   5.2918054e+02   5.2847937e+02   5.2814294e+02   5.1524536e+02   5.1514783e+02   5.0820435e+02   5.0312665e+02   4.9484927e+02   4.8549054e+02   4.8376749e+02   4.8132135e+02   4.7759592e+02   4.5706970e+02   4.5456430e+02   4.5514999e+02   4.4240088e+02   4.4182788e+02   4.3803601e+02   4.2514999e+02   4.2160196e+02   4.0629437e+02   4.0614999e+02   4.0592972e+02   4.0391769e+02   3.8951315e+02   3.8437766e+02   3.7514999e+02   3.6249957e+02   3.5914999e+02   3.5914999e+02   3.4977896e+02   3.4606174e+02   3.4358475e+02   3.3279486e+02   3.2514999e+02   3.1736218e+02   3.1728244e+02   3.1678448e+02   3.0814999e+02   3.0514999e+02   2.9971289e+02   2.9114999e+02   2.8552692e+02   2.7987430e+02   2.7781058e+02   2.6682199e+02   2.6514999e+02   2.5462854e+02   2.5326462e+02   2.4552039e+02   2.3912280e+02   2.3763708e+02   2.2697188e+02   2.2255624e+02   2.1114999e+02   2.0914999e+02   2.0914999e+02   2.0302808e+02   1.9609064e+02   1.8271078e+02   1.7702475e+02   1.7214999e+02   1.7214999e+02   1.7149052e+02   1.5868735e+02   1.4916595e+02   1.4848462e+02   1.4738757e+02   1.4656247e+02   1.4549054e+02   1.4087805e+02   1.2838533e+02   1.2069335e+02   1.1988737e+02   1.1495377e+02   1.1074950e+02   1.0738596e+02   1.0460764e+02   1.0255982e+02   9.9242989e+01   9.8150002e+01   9.7150002e+01   9.7150009e+01   9.5520096e+01   9.4501701e+01   9.0150002e+01   8.9150002e+01   8.7146614e+01   8.7150002e+01   8.6481178e+01   8.6150002e+01   8.4710373e+01   8.2468872e+01   8.2150002e+01   8.2062294e+01   7.6050240e+01   7.5150002e+01   7.4448357e+01   7.3150002e+01   7.2150009e+01   7.1436050e+01   7.1150002e+01   7.0150002e+01   7.0150002e+01   6.8150002e+01   6.7929756e+01   6.6458130e+01   6.2905647e+01   6.1640385e+01   6.0363953e+01   5.8150002e+01   5.8150002e+01   5.8150002e+01   5.7833351e+01   5.6150002e+01   5.3446358e+01   4.8797218e+01   4.8150002e+01   4.8150002e+01   4.8150002e+01   4.7885582e+01   4.7150002e+01   4.4024452e+01   4.0587135e+01   3.8786766e+01   3.8150002e+01   3.8150002e+01   3.8150002e+01   3.8150002e+01   3.5150002e+01   3.5150002e+01   3.3379333e+01   3.1150000e+01   3.1150000e+01   2.7762022e+01   2.6150000e+01   2.6150000e+01   2.5938391e+01   2.1939590e+01   2.0935486e+01   2.0150000e+01   1.7150000e+01   1.7150000e+01   8.5812721e+00   3.1500001e+00   1.4478210e+00             NaN             NaN             NaN             NaN             NaN             NaN             NaN             NaN             NaN             NaN             NaN             NaN             NaN             NaN             NaN             NaN             NaN             NaN             NaN             NaN             NaN             NaN             NaN             NaN             NaN             NaN             NaN
6.1381189e+02   6.0891931e+02   5.9567554e+02   5.8731531e+02   5.8748816e+02   5.8800885e+02   5.7953009e+02   5.6432214e+02   5.6297540e+02   5.6115002e+02   5.5885364e+02   5.5531012e+02   5.5084473e+02   5.3178223e+02   5.2850989e+02   5.2850189e+02   5.2780908e+02   5.1885693e+02   5.1514996e+02   5.1286261e+02   5.0170667e+02   4.8974966e+02   4.8682620e+02   4.8609988e+02   4.8357745e+02   4.7332184e+02   4.5700198e+02   4.5514999e+02   4.4665610e+02   4.4314999e+02   4.4248807e+02   4.2542996e+02   4.2514999e+02   4.2363068e+02   4.0601215e+02   4.0514996e+02   4.0525586e+02   3.8908530e+02   3.8772391e+02   3.7514999e+02   3.7221341e+02   3.6325980e+02   3.6076120e+02   3.5159454e+02   3.4671490e+02   3.4416205e+02   3.4238858e+02   3.3180423e+02   3.2548813e+02   3.2536221e+02   3.2016275e+02   3.1443277e+02   3.0687476e+02   3.0167508e+02   2.9325812e+02   2.9099405e+02   2.8563065e+02   2.7637280e+02   2.6731818e+02   2.6532224e+02   2.6165576e+02   2.5433040e+02   2.5214999e+02   2.4085719e+02   2.4039592e+02   2.3890643e+02   2.2310571e+02   2.1443698e+02   2.1074106e+02   2.0914999e+02   2.0380884e+02   2.0214999e+02   1.8438002e+02   1.8008148e+02   1.7282626e+02   1.7395288e+02   1.7309763e+02   1.7214999e+02   1.6514999e+02   1.5327762e+02   1.4847475e+02   1.4763739e+02   1.4696756e+02   1.3848813e+02   1.3719061e+02   1.3226205e+02   1.2855605e+02   1.2784068e+02   1.2704832e+02   1.1672468e+02   1.1006047e+02   1.0559318e+02   1.0158112e+02   9.9150002e+01   9.7557014e+01   9.7150002e+01   9.7150002e+01   9.6161072e+01   9.0170723e+01   8.9150002e+01   8.7150002e+01   8.7150002e+01   8.7150002e+01   8.6785690e+01   8.6098427e+01   8.3741127e+01   8.3150002e+01   8.2120346e+01   7.6454407e+01   7.5150002e+01   7.5150002e+01   7.3734352e+01   7.2150002e+01   7.2150002e+01   7.1150002e+01   7.0965889e+01   7.0150002e+01   6.8150002e+01   6.8004227e+01   6.6996254e+01   6.3150002e+01   6.1217354e+01   5.9150002e+01   5.8150002e+01   5.8150002e+01   5.8150002e+01   5.7602287e+01   5.6821297e+01   5.3446358e+01   4.9150002e+01   4.8150002e+01   4.8150002e+01   4.8150002e+01   4.8150002e+01   4.7150002e+01   4.4024452e+01   4.1150002e+01   3.9150002e+01   3.8150002e+01   3.8150002e+01   3.8150002e+01   3.6657875e+01   3.5150002e+01   3.5150002e+01   3.3015968e+01   3.1150000e+01   3.1150000e+01   2.6150002e+01   2.6150000e+01   2.6150000e+01   2.5150000e+01   2.2070295e+01   2.1150000e+01   1.7623980e+01   1.7150000e+01   1.6592066e+01   4.2426100e+00   2.3550959e+00   1.1500000e+00             NaN             NaN             NaN             NaN             NaN             NaN             NaN             NaN             NaN             NaN             NaN             NaN             NaN             NaN             NaN             NaN             NaN             NaN             NaN             NaN             NaN             NaN             NaN             NaN             NaN             NaN             NaN
6.1115002e+02   6.1235278e+02   6.0684045e+02   5.9065271e+02   5.8948572e+02   5.9015002e+02   5.8861493e+02   5.8121295e+02   5.6304498e+02   5.6315002e+02   5.6115002e+02   5.6021893e+02   5.5358038e+02   5.3220172e+02   5.3150751e+02   5.3084906e+02   5.3015723e+02   5.2748352e+02   5.1515002e+02   5.1515002e+02   5.1495300e+02   4.9584167e+02   4.8752798e+02   4.8814999e+02   4.8714999e+02   4.7514999e+02   4.5774637e+02   4.5636188e+02   4.5553137e+02   4.4515247e+02   4.4314999e+02   4.4392734e+02   4.3028824e+02   4.2614999e+02   4.1197220e+02   4.0626547e+02   4.0540775e+02   3.9829752e+02   3.9197968e+02   3.8656876e+02   3.7625137e+02   3.7542859e+02   3.6994766e+02   3.6130869e+02   3.4973471e+02   3.4681171e+02   3.4535489e+02   3.4287939e+02   3.3526285e+02   3.2688885e+02   3.2501538e+02   3.2037018e+02   3.0814999e+02   3.0609082e+02   2.9414999e+02   2.9133087e+02   2.8783704e+02   2.7950522e+02   2.7316238e+02   2.6765045e+02   2.6798215e+02   2.5399338e+02   2.5248572e+02   2.4612520e+02   2.4148573e+02   2.4114999e+02   2.2966183e+02   2.1669788e+02   2.1114999e+02   2.0964436e+02   2.0320183e+02   2.0314999e+02   2.0248573e+02   1.8486862e+02   1.7600366e+02   1.7421204e+02   1.7200613e+02   1.7090616e+02   1.6383577e+02   1.5923381e+02   1.5814999e+02   1.5446744e+02   1.4647852e+02   1.4148573e+02   1.3962460e+02   1.4701260e+02   1.4965619e+02   1.4734024e+02   1.3972069e+02   1.2645707e+02   1.1499512e+02   1.0929031e+02   1.0367171e+02   9.9311867e+01   9.9150002e+01   9.8206856e+01   9.7485741e+01   9.7485741e+01   9.0527336e+01   8.9150002e+01   8.7487991e+01   8.7150002e+01   8.7150002e+01   8.6189552e+01   8.6150002e+01   8.5022743e+01   8.3124596e+01   8.2062294e+01   7.7083733e+01   7.5150002e+01   7.5150002e+01   7.5150002e+01   7.3002022e+01   7.2150002e+01   7.1977943e+01   7.0965889e+01   7.0150002e+01   6.8150002e+01   6.8150002e+01   6.7150002e+01   6.5416939e+01   5.9893623e+01   5.8881538e+01   5.8150002e+01   5.8150002e+01   5.8047737e+01   5.7150002e+01   5.6821297e+01   5.3446358e+01   4.9150002e+01   4.8150002e+01   4.8150002e+01   4.8150002e+01   4.7547913e+01   4.7150002e+01   4.4306835e+01   4.1150002e+01   3.8700813e+01   3.8485741e+01   3.8326847e+01   3.8150002e+01   3.6657875e+01   3.5150002e+01   3.5150002e+01   3.1616491e+01   3.1150000e+01   2.7325510e+01   2.6150000e+01   2.6150000e+01   2.6150000e+01   2.3938391e+01   2.2121721e+01   2.1150000e+01   1.7150000e+01   1.7584421e+01   1.3247776e+01   3.3638253e+00   1.4598755e+00             NaN             NaN             NaN             NaN             NaN             NaN             NaN             NaN             NaN             NaN             NaN             NaN             NaN             NaN             NaN             NaN             NaN             NaN             NaN             NaN             NaN             NaN             NaN             NaN             NaN             NaN             NaN             NaN
6.1015002e+02   6.1069043e+02   6.1032739e+02   6.0537042e+02   5.9030322e+02   5.9015002e+02   5.9015002e+02   5.8826709e+02   5.6918250e+02   5.6315002e+02   5.6315002e+02   5.6315002e+02   5.6215002e+02   5.5351324e+02   5.3484943e+02   5.3215002e+02   5.3215002e+02   5.2947888e+02   5.2765210e+02   5.1715002e+02   5.1807098e+02   5.0721500e+02   4.8877426e+02   4.8814999e+02   4.8809149e+02   4.8708350e+02   4.6658893e+02   4.5727386e+02   4.5614999e+02   4.5614999e+02   4.5483002e+02   4.4690982e+02   4.3947629e+02   4.2641794e+02   4.2197119e+02   4.0992978e+02   4.0614999e+02   4.0222537e+02   3.9206454e+02   3.9181668e+02   3.9191016e+02   3.8523157e+02   3.7161368e+02   3.7026688e+02   3.5860223e+02   3.5115005e+02   3.5009171e+02   3.4608255e+02   3.3897586e+02   3.3183499e+02   3.2448334e+02   3.2351962e+02   3.1519888e+02   3.0646341e+02   2.9414999e+02   2.9348334e+02   2.9132559e+02   2.8314999e+02   2.8114999e+02   2.7013120e+02   2.6184964e+02   2.5432785e+02   2.5311963e+02   2.5263080e+02   2.5129344e+02   2.4242886e+02   2.4009792e+02   2.2134225e+02   2.1150235e+02   2.0792694e+02   2.0514999e+02   2.0459868e+02   2.0414999e+02   2.0257922e+02   1.9495285e+02   1.8450430e+02   1.7105501e+02   1.6957455e+02   1.6748334e+02   1.6148334e+02   1.5664175e+02   1.5260098e+02   1.5262573e+02   1.5341629e+02   1.4986212e+02   1.5103177e+02   1.4759354e+02   1.4145645e+02   1.4057745e+02   1.3073058e+02   1.1867225e+02   1.1039510e+02   1.0533598e+02   9.9645210e+01   9.9150002e+01   9.9150002e+01   9.9150002e+01   9.9150002e+01   9.1301956e+01   8.9152893e+01   8.8150002e+01   8.8150002e+01   8.8150002e+01   8.7123634e+01   8.6150002e+01   8.6065163e+01   8.3124771e+01   8.0886879e+01   7.6549850e+01   7.7000877e+01   7.5150002e+01   7.5150002e+01   7.4236717e+01   7.2150002e+01   7.2150002e+01   7.0150002e+01   6.9685883e+01   6.8150002e+01   6.8150002e+01   6.7150002e+01   6.5579842e+01   6.0150002e+01   5.8881538e+01   5.8150002e+01   5.8150002e+01   5.8150002e+01   5.7938904e+01   5.6930870e+01   5.4105629e+01   4.9150002e+01   4.8150002e+01   4.8150002e+01   4.8150002e+01   4.7150002e+01   4.7150002e+01   4.6150002e+01   4.1150002e+01   3.9150002e+01   3.8329590e+01   3.8150002e+01   3.8311779e+01   3.5820171e+01   3.5150002e+01   3.3078491e+01   3.1616491e+01   3.1150000e+01   2.6150000e+01   2.6150000e+01   2.6150000e+01   2.6150000e+01   2.3150000e+01   2.2277384e+01   1.9976765e+01   1.7150000e+01   1.6380669e+01   6.7102790e+00   2.4718995e+00   1.1500000e+00             NaN             NaN             NaN             NaN             NaN             NaN             NaN             NaN             NaN             NaN             NaN             NaN             NaN             NaN             NaN             NaN             NaN             NaN             NaN             NaN             NaN             NaN             NaN             NaN             NaN             NaN             NaN             NaN
6.1115002e+02   6.1115002e+02   6.1103137e+02   6.0792212e+02   5.9208948e+02   5.9029126e+02   5.9073267e+02   5.8993616e+02   5.8235864e+02   5.6484332e+02   5.6350775e+02   5.6348096e+02   5.6379309e+02   5.5621796e+02   5.3986658e+02   5.3614270e+02   5.3215002e+02   5.3214093e+02   5.2713971e+02   5.1715002e+02   5.1815002e+02   5.1478461e+02   4.9403659e+02   4.8907431e+02   4.8814999e+02   4.8865256e+02   4.8562424e+02   4.6549191e+02   4.5800784e+02   4.5614999e+02   4.5482999e+02   4.4814999e+02   4.4528961e+02   4.2708511e+02   4.2614999e+02   4.1148923e+02   4.0914996e+02   4.0882303e+02   4.0540530e+02   3.9206119e+02   3.9114999e+02   3.9214999e+02   3.8707056e+02   3.7137613e+02   3.6747836e+02   3.6010562e+02   3.5450281e+02   3.4586188e+02   3.3914999e+02   3.3810916e+02   3.2634805e+02   3.2487366e+02   3.2114999e+02   3.0714999e+02   3.0554495e+02   2.9549939e+02   2.9385101e+02   2.8334225e+02   2.8214999e+02   2.6864682e+02   2.6419382e+02   2.5598842e+02   2.5547372e+02   2.5435849e+02   2.5158035e+02   2.4670670e+02   2.4155624e+02   2.2328046e+02   2.1157614e+02   2.0641928e+02   2.0514999e+02   2.0592099e+02   2.0514999e+02   2.0369630e+02   2.0058347e+02   1.9091762e+02   1.8395880e+02   1.7440839e+02   1.6663147e+02   1.6595905e+02   1.6529317e+02   1.6459381e+02   1.6254849e+02   1.6301523e+02   1.5825464e+02   1.5487903e+02   1.4765942e+02   1.3931042e+02   1.3891351e+02   1.3625081e+02   1.1638419e+02   1.1043037e+02   1.0563613e+02   1.0061601e+02   1.0015000e+02   9.9168816e+01   9.9150002e+01   9.9150002e+01   9.1308914e+01   8.9158669e+01   8.8150002e+01   8.8150002e+01   8.8150002e+01   8.8070900e+01   8.6150002e+01   8.6150002e+01   8.3405251e+01   7.8150002e+01   7.7150002e+01   7.7150002e+01   7.7150002e+01   7.5150002e+01   7.4149994e+01   7.2150002e+01   7.2093063e+01   7.0150002e+01   6.9150002e+01   6.8150002e+01   6.8150002e+01   6.7917702e+01   6.4928230e+01   6.0150002e+01   5.9150002e+01   5.8150002e+01   5.8150002e+01   5.8150002e+01   5.8150002e+01   5.7150002e+01   5.4105629e+01   4.9583035e+01   4.8150002e+01   4.8150002e+01   4.8150002e+01   4.7149998e+01   4.7150002e+01   4.6150002e+01   4.1150002e+01   3.9514565e+01   3.8971710e+01   3.8797581e+01   3.7494354e+01   3.7150002e+01   3.4490822e+01   3.1801111e+01   3.1150000e+01   3.0454046e+01   2.6150000e+01   2.6150000e+01   2.6150000e+01   2.3965364e+01   2.3150000e+01   2.1741060e+01   1.8382734e+01   1.7150000e+01   1.5496008e+01   3.4839540e+00   1.9255944e+00   4.5987549e-01             NaN             NaN             NaN             NaN             NaN             NaN             NaN             NaN             NaN             NaN             NaN             NaN             NaN             NaN             NaN             NaN             NaN             NaN             NaN             NaN             NaN             NaN             NaN             NaN             NaN             NaN             NaN             NaN
6.1115002e+02   6.1115002e+02   6.1070239e+02   6.1015002e+02   6.0460974e+02   5.9129126e+02   5.9115002e+02   5.9174286e+02   5.8921906e+02   5.8218054e+02   5.6653296e+02   5.6647852e+02   5.6647864e+02   5.5845001e+02   5.5520483e+02   5.4117078e+02   5.3250433e+02   5.3213989e+02   5.2715002e+02   5.2041382e+02   5.1814996e+02   5.1677325e+02   5.1306000e+02   4.9355411e+02   4.8847855e+02   4.8814999e+02   4.8892636e+02   4.8062943e+02   4.6287622e+02   4.5745038e+02   4.5482999e+02   4.5309097e+02   4.4875833e+02   4.2875485e+02   4.2614996e+02   4.1573663e+02   4.1168207e+02   4.0964655e+02   4.0915002e+02   4.0890964e+02   3.9722250e+02   3.9114999e+02   3.9071701e+02   3.7754477e+02   3.7194339e+02   3.6344962e+02   3.5647855e+02   3.5541510e+02   3.3989694e+02   3.3876108e+02   3.2647980e+02   3.2514999e+02   3.2390771e+02   3.1941312e+02   3.0547391e+02   3.0196329e+02   2.9300525e+02   2.8768973e+02   2.8248209e+02   2.7401819e+02   2.6167145e+02   2.5863181e+02   2.5897073e+02   2.5814999e+02   2.5776749e+02   2.5078714e+02   2.4341695e+02   2.2971640e+02   2.1962811e+02   2.0994766e+02   2.0446339e+02   2.0403632e+02   2.0382144e+02   2.0314999e+02   2.0168661e+02   1.9090047e+02   1.8543576e+02   1.8925967e+02   1.8163139e+02   1.8195932e+02   1.7827545e+02   1.7714999e+02   1.7329027e+02   1.6494760e+02   1.6249289e+02   1.5051807e+02   1.4331528e+02   1.3369646e+02   1.2871654e+02   1.2647855e+02   1.1393854e+02   1.0932557e+02   1.0524299e+02   1.0223093e+02   1.0015000e+02   1.0015000e+02   1.0015000e+02   1.0015000e+02   9.8492470e+01   8.9158669e+01   8.8150002e+01   8.9150002e+01   8.8478554e+01   8.8150002e+01   8.6150002e+01   8.6150002e+01   8.4947815e+01   7.8150002e+01   7.7150002e+01   7.7150002e+01   7.7150002e+01   7.5150002e+01   7.4722092e+01   7.2150002e+01   7.2034477e+01   6.9965889e+01   6.9150002e+01   6.8150002e+01   6.8150002e+01   6.7917702e+01   6.5683876e+01   6.0065765e+01   5.9150002e+01   5.8150002e+01   5.8150002e+01   5.8150002e+01   5.8150002e+01   5.7150002e+01   5.4105629e+01   4.9150005e+01   4.8150002e+01   4.8150002e+01   4.8150002e+01   4.7149998e+01   4.7150002e+01   4.5150002e+01   4.1150002e+01   3.9353249e+01   3.8183197e+01   3.7150002e+01   3.7150002e+01   3.6986588e+01   3.2150002e+01   3.1807350e+01   3.0150000e+01   2.9612261e+01   2.6150000e+01   2.6150000e+01   2.3711699e+01   2.3150000e+01   2.3150000e+01   2.1406588e+01   1.7150000e+01   1.6939091e+01   7.4907212e+00   2.9311690e+00   1.3661386e+00             NaN             NaN             NaN             NaN             NaN             NaN             NaN             NaN             NaN             NaN             NaN             NaN             NaN             NaN             NaN             NaN             NaN             NaN             NaN             NaN             NaN             NaN             NaN             NaN             NaN             NaN             NaN             NaN             NaN
6.1082385e+02   6.1027759e+02   6.1070435e+02   6.1058759e+02   6.0845648e+02   5.9298273e+02   5.9247620e+02   5.9255505e+02   5.9254700e+02   5.8557397e+02   5.6844983e+02   5.6715002e+02   5.6715002e+02   5.6586273e+02   5.5790009e+02   5.4309241e+02   5.4015002e+02   5.3543317e+02   5.2714502e+02   5.2415002e+02   5.1815002e+02   5.1815002e+02   5.1671796e+02   5.1096823e+02   4.9614999e+02   4.8915002e+02   4.8714999e+02   4.8736108e+02   4.6410565e+02   4.6200201e+02   4.5438641e+02   4.5314999e+02   4.5212988e+02   4.3715961e+02   4.2754935e+02   4.2914996e+02   4.2900656e+02   4.1639005e+02   4.0989362e+02   4.0948193e+02   4.0828717e+02   4.0174664e+02   3.8994476e+02   3.8401639e+02   3.7236899e+02   3.6880191e+02   3.5636108e+02   3.5614999e+02   3.5250659e+02   3.3908725e+02   3.3418652e+02   3.2714999e+02   3.2471255e+02   3.2314999e+02   3.0414999e+02   2.9972415e+02   2.9400287e+02   2.9032831e+02   2.8514456e+02   2.8314999e+02   2.6657809e+02   2.6061646e+02   2.5914999e+02   2.5814999e+02   2.5814999e+02   2.5378435e+02   2.4763989e+02   2.4113599e+02   2.2439348e+02   2.2282385e+02   2.0846912e+02   2.0391684e+02   2.0327264e+02   2.0293307e+02   2.0333727e+02   1.9344780e+02   1.9169669e+02   1.9582175e+02   1.9877084e+02   1.9358797e+02   1.8469220e+02   1.7966971e+02   1.7125078e+02   1.6723103e+02   1.5364275e+02   1.4264571e+02   1.3415085e+02   1.3082384e+02   1.2510923e+02   1.1751450e+02   1.1247616e+02   1.0885810e+02   1.0524299e+02   1.0253069e+02   1.0117246e+02   1.0016854e+02   1.0016462e+02   1.0015001e+02   9.8830612e+01   9.0150002e+01   9.0144325e+01   8.8150002e+01   8.8150002e+01   8.8150002e+01   8.6768669e+01   8.6150002e+01   8.4244324e+01   7.8150002e+01   7.7150002e+01   7.7150002e+01   7.6985695e+01   7.5150002e+01   7.5050285e+01   7.2150002e+01   7.2150002e+01   7.0150002e+01   6.8887825e+01   6.8408249e+01   6.8150002e+01   6.7667313e+01   6.4928230e+01   6.0150002e+01   5.9150002e+01   5.8869484e+01   5.8150002e+01   5.8150002e+01   5.8150002e+01   5.7150002e+01   5.4661285e+01   4.9034939e+01   4.7578003e+01   4.7150002e+01   4.7150002e+01   4.7150002e+01   4.7015289e+01   4.5150002e+01   4.3401466e+01   3.8982086e+01   3.7150002e+01   3.7150002e+01   3.7150002e+01   3.6150002e+01   3.2150002e+01   3.2150002e+01   2.9627977e+01   2.6972059e+01   2.6150000e+01   2.5592623e+01   2.3150000e+01   2.3150000e+01   2.2544195e+01   2.1150000e+01   1.6725536e+01   1.5940628e+01   3.4960084e+00   2.1500001e+00   9.2883301e-01             NaN             NaN             NaN             NaN             NaN             NaN             NaN             NaN             NaN             NaN             NaN             NaN             NaN             NaN             NaN             NaN             NaN             NaN             NaN             NaN             NaN             NaN             NaN             NaN             NaN             NaN             NaN             NaN             NaN
6.1115002e+02   6.1115002e+02   6.1115002e+02   6.1115002e+02   6.1057739e+02   6.0666064e+02   5.9347375e+02   5.9315002e+02   5.9315002e+02   5.9230994e+02   5.8609528e+02   5.6852039e+02   5.6715002e+02   5.6745929e+02   5.6222546e+02   5.5813599e+02   5.4314417e+02   5.4179413e+02   5.3127545e+02   5.2579755e+02   5.2411047e+02   5.2040405e+02   5.1879755e+02   5.1702106e+02   4.9614999e+02   4.9324832e+02   4.9039810e+02   4.8843365e+02   4.7836041e+02   4.6375381e+02   4.5641333e+02   4.5314999e+02   4.5327451e+02   4.5226691e+02   4.5084317e+02   4.3339612e+02   4.2851877e+02   4.2622906e+02   4.2137006e+02   4.0841843e+02   4.0896033e+02   4.0755649e+02   3.9015002e+02   3.8614999e+02   3.7810107e+02   3.7536343e+02   3.7181000e+02   3.5672046e+02   3.5614999e+02   3.5104935e+02   3.3676627e+02   3.2745911e+02   3.2301236e+02   3.2188315e+02   3.0700323e+02   3.0094073e+02   2.9489047e+02   2.8999286e+02   2.8615170e+02   2.8514999e+02   2.8344485e+02   2.6809949e+02   2.5962088e+02   2.5877292e+02   2.5787137e+02   2.5549867e+02   2.5375320e+02   2.4695387e+02   2.4533226e+02   2.2603972e+02   2.1814999e+02   2.1814999e+02   2.1071120e+02   2.1000958e+02   2.1200703e+02   2.0866064e+02   2.1746603e+02   2.2294131e+02   2.0521190e+02   2.0243950e+02   2.0127496e+02   1.7742976e+02   1.6932843e+02   1.5807147e+02   1.4227176e+02   1.3562460e+02   1.3279881e+02   1.2623634e+02   1.1906290e+02   1.1699722e+02   1.1555294e+02   1.1182323e+02   1.0424299e+02   1.0315001e+02   1.0215000e+02   1.0115000e+02   1.0115000e+02   1.0115000e+02   9.8184143e+01   9.0479607e+01   8.9474937e+01   9.0139565e+01   8.8464851e+01   8.8150002e+01   8.8098427e+01   8.6150002e+01   8.1449242e+01   7.8445351e+01   7.8082535e+01   7.7437538e+01   7.6902199e+01   7.5150002e+01   7.5150002e+01   7.2965805e+01   7.2094299e+01   7.0965889e+01   6.8150002e+01   6.8150002e+01   6.8150002e+01   6.7917702e+01   6.5172867e+01   6.0150002e+01   5.9150002e+01   5.9150002e+01   5.8150002e+01   5.8150002e+01   5.7612122e+01   5.7043583e+01   5.5809273e+01   4.8150002e+01   4.7150002e+01   4.7150002e+01   4.7150002e+01   4.7150002e+01   4.6736980e+01   4.5150002e+01   4.5008480e+01   3.9353249e+01   3.7150002e+01   3.7150002e+01   3.6498055e+01   3.5505909e+01   3.2150002e+01   3.2150002e+01   2.7465467e+01   2.6781061e+01   2.6150000e+01   2.3732063e+01   2.3150000e+01   2.3150000e+01   2.1544195e+01   1.9532141e+01   1.6650545e+01   7.5714145e+00   2.9382730e+00   1.3758377e+00             NaN             NaN             NaN             NaN             NaN             NaN             NaN             NaN             NaN             NaN             NaN             NaN             NaN             NaN             NaN             NaN             NaN             NaN             NaN             NaN             NaN             NaN             NaN             NaN             NaN             NaN             NaN             NaN             NaN             NaN
6.1115002e+02   6.1115002e+02   6.1115002e+02   6.1215002e+02   6.1215002e+02   6.0956720e+02   5.9904315e+02   5.9418762e+02   5.9415002e+02   5.9415002e+02   5.8711243e+02   5.7212787e+02   5.7015002e+02   5.6948743e+02   5.6817102e+02   5.6052527e+02   5.5616150e+02   5.4314996e+02   5.4315002e+02   5.3067529e+02   5.2645868e+02   5.2415002e+02   5.2135364e+02   5.1974408e+02   5.1627649e+02   4.9614999e+02   4.9624368e+02   4.9094208e+02   4.8648965e+02   4.6569760e+02   4.6436276e+02   4.6296475e+02   4.6367438e+02   4.5414999e+02   4.5373355e+02   4.3429950e+02   4.3174185e+02   4.2714999e+02   4.2572882e+02   4.0856726e+02   4.0914999e+02   4.0765891e+02   3.9675677e+02   3.9348978e+02   3.8396588e+02   3.7580927e+02   3.7535797e+02   3.6161987e+02   3.5657291e+02   3.5602499e+02   3.4360196e+02   3.2979535e+02   3.2190967e+02   3.2100952e+02   3.1336420e+02   3.0230508e+02   2.9914999e+02   2.8967270e+02   2.8714999e+02   2.8614999e+02   2.8614999e+02   2.8429990e+02   2.6728140e+02   2.5995074e+02   2.5871863e+02   2.5839792e+02   2.5802951e+02   2.4793355e+02   2.4821078e+02   2.4370921e+02   2.2544479e+02   2.1969373e+02   2.1569800e+02   2.1689500e+02   2.2283151e+02   2.2601834e+02   2.2559875e+02   2.1368321e+02   2.1256483e+02   2.0880939e+02   1.8316182e+02   1.7140933e+02   1.6205083e+02   1.5953607e+02   1.3859642e+02   1.3450092e+02   1.2842744e+02   1.2223910e+02   1.1856716e+02   1.1947135e+02   1.1787216e+02   1.1596903e+02   1.0581342e+02   1.0315000e+02   1.0217213e+02   1.0215001e+02   1.0150175e+02   1.0215000e+02   1.0117073e+02   9.1152786e+01   9.0150002e+01   9.0150002e+01   8.9122505e+01   8.8150002e+01   8.7150002e+01   8.7150002e+01   8.2074318e+01   7.9090477e+01   7.9082298e+01   7.8150002e+01   7.7778297e+01   7.5150002e+01   7.5150002e+01   7.4669899e+01   7.1711884e+01   7.1150002e+01   6.8953835e+01   6.8150002e+01   6.8150002e+01   6.7917702e+01   6.5683876e+01   6.0150002e+01   5.9150002e+01   5.9150002e+01   5.9150002e+01   5.8621933e+01   5.8150002e+01   5.7044373e+01   5.5809273e+01   4.8150002e+01   4.7150002e+01   4.7150002e+01   4.7150002e+01   4.7150002e+01   4.6736977e+01   4.5150002e+01   4.4150002e+01   3.9930634e+01   3.6150002e+01   3.6150002e+01   3.6150002e+01   3.4160500e+01   3.2150002e+01   3.2150002e+01   2.7150000e+01   2.7150000e+01   2.5185949e+01   2.3150000e+01   2.3150000e+01   2.2556219e+01   2.0544195e+01   1.8914282e+01   1.5520086e+01   4.1867127e+00   2.1500001e+00             NaN             NaN             NaN             NaN             NaN             NaN             NaN             NaN             NaN             NaN             NaN             NaN             NaN             NaN             NaN             NaN             NaN             NaN             NaN             NaN             NaN             NaN             NaN             NaN             NaN             NaN             NaN             NaN             NaN             NaN             NaN
6.1215002e+02   6.1215002e+02   6.1215002e+02   6.1215002e+02   6.1215002e+02   6.1391266e+02   6.0589203e+02   5.9608679e+02   5.9515002e+02   5.9515002e+02   5.9164642e+02   5.7345770e+02   5.7152588e+02   5.6923969e+02   5.7011731e+02   5.6619141e+02   5.5814417e+02   5.4747131e+02   5.4677734e+02   5.4596191e+02   5.3051984e+02   5.2607977e+02   5.2478796e+02   5.2200708e+02   5.1909027e+02   4.9743716e+02   4.9714999e+02   4.9379498e+02   4.8980362e+02   4.7574323e+02   4.6793994e+02   4.6514999e+02   4.6596588e+02   4.6058078e+02   4.5386639e+02   4.5154996e+02   4.3584277e+02   4.2690897e+02   4.2314996e+02   4.2296716e+02   4.0860898e+02   4.0814999e+02   4.0695694e+02   4.0158826e+02   4.0092615e+02   3.7638205e+02   3.7614999e+02   3.7603363e+02   3.6844473e+02   3.5534491e+02   3.3614999e+02   3.3456302e+02   3.2482333e+02   3.2046896e+02   3.2016306e+02   3.1781265e+02   3.0014999e+02   2.9782788e+02   2.8749231e+02   2.8894986e+02   2.8646896e+02   2.8478665e+02   2.8205887e+02   2.6997745e+02   2.6503656e+02   2.6659036e+02   2.5644366e+02   2.4854420e+02   2.4746896e+02   2.4617398e+02   2.2796304e+02   2.2566129e+02   2.3212772e+02   2.3281819e+02   2.3277454e+02   2.3019354e+02   2.2875233e+02   2.1382678e+02   2.0843372e+02   1.9040475e+02   1.7367949e+02   1.6369968e+02   1.6182182e+02   1.5390961e+02   1.3874088e+02   1.3414999e+02   1.2791209e+02   1.2157331e+02   1.2119502e+02   1.2055691e+02   1.2015000e+02   1.1815000e+02   1.0733597e+02   1.0493779e+02   1.0317197e+02   1.0246896e+02   1.0246896e+02   1.0246896e+02   9.9942062e+01   9.2158669e+01   9.1150002e+01   9.0459099e+01   8.9150002e+01   8.7804115e+01   8.7150002e+01   8.7129707e+01   8.2739632e+01   8.0090271e+01   7.8468948e+01   7.8468956e+01   7.7857338e+01   7.5150002e+01   7.5150002e+01   7.4148888e+01   7.1150002e+01   7.1150002e+01   6.8919159e+01   6.8150002e+01   6.8150002e+01   6.8150002e+01   6.5683876e+01   6.0387184e+01   5.9150002e+01   5.9150002e+01   5.9150002e+01   5.9150002e+01   5.8367958e+01   5.7045158e+01   5.5809273e+01   4.8037479e+01   4.7150002e+01   4.7150002e+01   4.7150002e+01   4.7150002e+01   4.6150002e+01   4.5150002e+01   4.4150002e+01   3.9150002e+01   3.6150002e+01   3.6150002e+01   3.6150002e+01   3.4160500e+01   3.2150002e+01   3.0475912e+01   2.7150000e+01   2.5966526e+01   2.3150000e+01   2.2856905e+01   2.3150000e+01   2.1150000e+01   2.0418465e+01   1.7335073e+01   7.7884994e+00   2.9452515e+00   1.3856474e+00             NaN             NaN             NaN             NaN             NaN             NaN             NaN             NaN             NaN             NaN             NaN             NaN             NaN             NaN             NaN             NaN             NaN             NaN             NaN             NaN             NaN             NaN             NaN             NaN             NaN             NaN             NaN             NaN             NaN             NaN             NaN
6.2346655e+02   6.1426276e+02   6.1352277e+02   6.1315002e+02   6.1325476e+02   6.1424652e+02   6.1336090e+02   5.9873553e+02   5.9746661e+02   5.9808649e+02   5.9709473e+02   5.9025909e+02   5.7415002e+02   5.7315002e+02   5.7310522e+02   5.6952319e+02   5.6711749e+02   5.5715002e+02   5.5012402e+02   5.5108496e+02   5.3701324e+02   5.2776685e+02   5.2615002e+02   5.2591925e+02   5.2105792e+02   4.9856635e+02   4.9743115e+02   4.9715002e+02   4.9659262e+02   4.9168939e+02   4.8872409e+02   4.7028970e+02   4.6520828e+02   4.6409967e+02   4.6325836e+02   4.5096793e+02   4.4322351e+02   4.2686765e+02   4.2479953e+02   4.2314996e+02   4.2214999e+02   4.2195004e+02   4.1023193e+02   4.0671722e+02   4.0214999e+02   3.9218121e+02   3.7603830e+02   3.7514999e+02   3.5714999e+02   3.5635260e+02   3.4753156e+02   3.3514999e+02   3.3514999e+02   3.3126630e+02   3.2183344e+02   3.1732056e+02   3.0050998e+02   2.9983344e+02   2.9541257e+02   2.8826773e+02   2.8731506e+02   2.8676413e+02   2.8059845e+02   2.7732651e+02   2.7485587e+02   2.7462003e+02   2.7120078e+02   2.5439641e+02   2.5383850e+02   2.5061200e+02   2.5566286e+02   2.6368564e+02   2.6532660e+02   2.6056171e+02   2.4340503e+02   2.2982112e+02   2.2080301e+02   2.0929517e+02   2.0251688e+02   1.8267386e+02   1.7250027e+02   1.6346655e+02   1.6329588e+02   1.5298454e+02   1.5114999e+02   1.3422552e+02   1.2724065e+02   1.2357128e+02   1.2156304e+02   1.2087138e+02   1.1923003e+02   1.1627189e+02   1.0953011e+02   1.0617562e+02   1.0417181e+02   1.0416801e+02   1.0383344e+02   1.0315000e+02   9.6234970e+01   9.3158669e+01   9.2150002e+01   9.1430794e+01   8.9150002e+01   8.9150002e+01   8.7783112e+01   8.7022743e+01   8.3998634e+01   8.0466560e+01   8.0150002e+01   7.9431145e+01   7.8055634e+01   7.5150002e+01   7.5150002e+01   7.5150002e+01   7.1150002e+01   7.1150002e+01   7.0561501e+01   6.8150002e+01   6.8150002e+01   6.7991234e+01   6.3150002e+01   6.1129021e+01   5.9966522e+01   5.9150002e+01   5.9150002e+01   5.9150002e+01   5.8833351e+01   5.6150002e+01   5.5150002e+01   4.8038326e+01   4.7150002e+01   4.7150002e+01   4.7150002e+01   4.7150002e+01   4.5551163e+01   4.4724892e+01   4.1964333e+01   3.9150002e+01   3.8204308e+01   3.6150002e+01   3.6150002e+01   3.4652626e+01   3.1516882e+01   2.6150000e+01   2.5616489e+01   2.5150000e+01   2.2592413e+01   2.2675550e+01   2.2384123e+01   2.0962032e+01   1.8938391e+01   1.5954411e+01   4.2035279e+00   2.1500001e+00   9.4297314e-01             NaN             NaN             NaN             NaN             NaN             NaN             NaN             NaN             NaN             NaN             NaN             NaN             NaN             NaN             NaN             NaN             NaN             NaN             NaN             NaN             NaN             NaN             NaN             NaN             NaN             NaN             NaN             NaN             NaN             NaN             NaN
6.2515002e+02   6.2415002e+02   6.1743353e+02   6.1415002e+02   6.1415002e+02   6.1505322e+02   6.1642358e+02   6.0318683e+02   5.9911700e+02   5.9915002e+02   5.9817542e+02   5.9591614e+02   5.7552515e+02   5.7415002e+02   5.7316028e+02   5.7413580e+02   5.7115869e+02   5.6744226e+02   5.5277350e+02   5.5145557e+02   5.4526349e+02   5.3216626e+02   5.2703247e+02   5.2615002e+02   5.2309247e+02   5.2146417e+02   4.9977829e+02   4.9946414e+02   4.9914999e+02   4.9290311e+02   4.8857388e+02   4.7412906e+02   4.6914319e+02   4.6635626e+02   4.6494177e+02   4.5804630e+02   4.4583133e+02   4.4128961e+02   4.2723746e+02   4.2460965e+02   4.2414999e+02   4.2314999e+02   4.2114999e+02   4.0605051e+02   4.0309494e+02   3.9402328e+02   3.7614999e+02   3.7534952e+02   3.6870206e+02   3.5614996e+02   3.5614999e+02   3.4646317e+02   3.3462213e+02   3.3397318e+02   3.2246414e+02   3.2300510e+02   3.0444254e+02   3.0046414e+02   2.9930789e+02   2.9641599e+02   2.9088571e+02   2.8804065e+02   2.7964273e+02   2.7663931e+02   2.7526727e+02   2.7415533e+02   2.6531021e+02   2.6605615e+02   2.7109244e+02   2.7058636e+02   2.8374756e+02   2.6702139e+02   2.6669321e+02   2.5293834e+02   2.4480945e+02   2.2501073e+02   2.1099548e+02   2.0202869e+02   1.9552170e+02   1.7730579e+02   1.7438951e+02   1.6880820e+02   1.5846472e+02   1.5540086e+02   1.5283585e+02   1.5050467e+02   1.3188777e+02   1.2614999e+02   1.2356097e+02   1.2158375e+02   1.1786625e+02   1.1385033e+02   1.1155714e+02   1.0914796e+02   1.0553303e+02   1.0515000e+02   1.0415001e+02   1.0217246e+02   9.6478363e+01   9.4790184e+01   9.3147682e+01   9.0139412e+01   8.9150002e+01   8.9150002e+01   8.9150002e+01   8.6718849e+01   8.4150002e+01   8.1150002e+01   8.1050240e+01   8.0114861e+01   7.6700447e+01   7.5150002e+01   7.5150002e+01   7.5150002e+01   7.1150002e+01   7.1150002e+01   7.2015465e+01   6.8150002e+01   6.8150002e+01   6.8150002e+01   6.3150002e+01   6.2150002e+01   6.0150002e+01   5.9957607e+01   5.9150002e+01   5.9150002e+01   5.8150002e+01   5.6150002e+01   5.5150002e+01   4.7797218e+01   4.6835854e+01   4.7150002e+01   4.7149998e+01   4.6434883e+01   4.5150002e+01   4.4150002e+01   4.1433861e+01   3.9150002e+01   3.9150002e+01   3.5811890e+01   3.4997540e+01   3.4307899e+01   2.8150000e+01   2.5986185e+01   2.5150000e+01   2.4058874e+01   2.2974836e+01   2.3150000e+01   2.1436874e+01   2.0150000e+01   1.6150000e+01   1.3471101e+01   3.2059388e+00   1.3955780e+00             NaN             NaN             NaN             NaN             NaN             NaN             NaN             NaN             NaN             NaN             NaN             NaN             NaN             NaN             NaN             NaN             NaN             NaN             NaN             NaN             NaN             NaN             NaN             NaN             NaN             NaN             NaN             NaN             NaN             NaN             NaN             NaN
6.2383826e+02   6.2315002e+02   6.2297266e+02   6.2030463e+02   6.1546179e+02   6.1605286e+02   6.1897229e+02   6.0907172e+02   6.0146179e+02   5.9977350e+02   6.0040601e+02   6.0021893e+02   5.9650092e+02   5.7665442e+02   5.7479608e+02   5.7477350e+02   5.7415002e+02   5.6914325e+02   5.5654083e+02   5.5317749e+02   5.5255115e+02   5.3279291e+02   5.3315002e+02   5.2812933e+02   5.2602930e+02   5.2383569e+02   5.2259198e+02   5.1719366e+02   4.9947528e+02   4.9804819e+02   4.8841190e+02   4.8761154e+02   4.8391309e+02   4.7266855e+02   4.6460504e+02   4.6263409e+02   4.4813708e+02   4.4530917e+02   4.4138181e+02   4.3685495e+02   4.2434305e+02   4.2414999e+02   4.2473074e+02   4.0750513e+02   4.0171448e+02   4.0094443e+02   3.7714999e+02   3.7634799e+02   3.7546176e+02   3.5622379e+02   3.5483823e+02   3.5268164e+02   3.3814999e+02   3.3647549e+02   3.2646176e+02   3.2531796e+02   3.0967734e+02   3.0579370e+02   3.0324557e+02   3.0139700e+02   2.9702051e+02   2.9477350e+02   2.9389304e+02   2.8867398e+02   2.8865677e+02   2.8697614e+02   2.8317346e+02   2.8949020e+02   3.0359348e+02   3.0759097e+02   3.1514999e+02   2.9399490e+02   2.6451111e+02   2.4925998e+02   2.3183792e+02   2.1738669e+02   2.0939456e+02   1.9788553e+02   1.9134593e+02   1.8021213e+02   1.7591231e+02   1.7156912e+02   1.6890479e+02   1.5560037e+02   1.5284480e+02   1.5157230e+02   1.5062704e+02   1.3208495e+02   1.2708526e+02   1.2515000e+02   1.2324644e+02   1.1677351e+02   1.1486649e+02   1.1256792e+02   1.0855210e+02   1.0687370e+02   1.0646175e+02   1.0120104e+02   9.8156456e+01   9.6467712e+01   9.6145340e+01   9.1134560e+01   9.0150002e+01   8.9461754e+01   8.9461746e+01   8.4733833e+01   8.4150002e+01   8.1777885e+01   8.1118904e+01   8.0038155e+01   7.7629074e+01   7.5150002e+01   7.5150002e+01   7.5150002e+01   7.1461761e+01   7.2150002e+01   7.2150002e+01   7.0863388e+01   6.8393089e+01   6.7388687e+01   6.3150002e+01   6.2150002e+01   6.1193291e+01   6.0150002e+01   5.9150002e+01   5.9150002e+01   5.8150002e+01   5.5714493e+01   5.3340134e+01   4.7797218e+01   4.6036263e+01   4.5150002e+01   4.5150002e+01   4.5150002e+01   4.5150002e+01   4.4150002e+01   3.9150002e+01   3.9150002e+01   3.9150002e+01   3.8150002e+01   3.4635323e+01   3.1508064e+01   2.7640600e+01   2.5150000e+01   2.5150000e+01   2.4058874e+01   2.2838247e+01   2.3150000e+01   2.0437876e+01   1.7676987e+01   1.6150000e+01   4.5321412e+00   2.4047115e+00   1.1500000e+00             NaN             NaN             NaN             NaN             NaN             NaN             NaN             NaN             NaN             NaN             NaN             NaN             NaN             NaN             NaN             NaN             NaN             NaN             NaN             NaN             NaN             NaN             NaN             NaN             NaN             NaN             NaN             NaN             NaN             NaN             NaN             NaN
6.2515002e+02   6.2345935e+02   6.2415002e+02   6.2398474e+02   6.2298047e+02   6.2245941e+02   6.2245935e+02   6.2157654e+02   6.0394690e+02   6.0308575e+02   6.0286572e+02   6.0250696e+02   5.9957312e+02   5.9625354e+02   5.7649213e+02   5.7645935e+02   5.7577472e+02   5.6883160e+02   5.6616547e+02   5.5533447e+02   5.5415002e+02   5.4246381e+02   5.3472937e+02   5.3415009e+02   5.3414996e+02   5.3063513e+02   5.2381458e+02   5.1939203e+02   5.0086838e+02   4.9907803e+02   4.9484616e+02   4.9197159e+02   4.8996747e+02   4.8239868e+02   4.7063330e+02   4.6631549e+02   4.6307816e+02   4.4935776e+02   4.4545938e+02   4.4114999e+02   4.2545932e+02   4.2514999e+02   4.2514999e+02   4.2283337e+02   4.0314996e+02   4.0314999e+02   3.9574631e+02   3.7693704e+02   3.7776871e+02   3.7300009e+02   3.5802954e+02   3.5239792e+02   3.4470914e+02   3.4370541e+02   3.2938828e+02   3.2761685e+02   3.1859012e+02   3.1454663e+02   3.1354129e+02   3.1365433e+02   3.1314630e+02   3.1258646e+02   3.4058591e+02   3.3875146e+02   3.1301688e+02   3.1350989e+02   3.1193710e+02   3.0807809e+02   2.9447116e+02   2.9149347e+02   2.8275534e+02   2.6729367e+02   2.5474054e+02   2.3787122e+02   2.2610236e+02   2.1141315e+02   2.0633392e+02   1.9626711e+02   1.9196927e+02   1.8713203e+02   1.7514999e+02   1.6961511e+02   1.7014999e+02   1.5769189e+02   1.5496089e+02   1.5620055e+02   1.5262463e+02   1.4496353e+02   1.3345935e+02   1.3306079e+02   1.2978284e+02   1.2340137e+02   1.2117105e+02   1.1912814e+02   1.1648257e+02   1.1112394e+02   1.0654896e+02   1.0484064e+02   1.0078303e+02   9.8468025e+01   9.7150002e+01   9.5022194e+01   9.0450851e+01   9.0150002e+01   9.0114388e+01   8.6062111e+01   8.4150002e+01   8.1996681e+01   8.1050240e+01   7.9926308e+01   7.7459358e+01   7.6056129e+01   7.5150002e+01   7.5149994e+01   7.4633827e+01   7.2150002e+01   7.1594841e+01   7.1941780e+01   6.9150002e+01   6.6220802e+01   6.2905647e+01   6.2150002e+01   6.2150002e+01   6.1178841e+01   5.9857430e+01   5.9055775e+01   5.8833351e+01   5.5821297e+01   5.2446358e+01   4.6797218e+01   4.5785164e+01   4.5150002e+01   4.5150002e+01   4.5150002e+01   4.4736977e+01   4.3724892e+01   3.9150002e+01   3.9011044e+01   3.7150002e+01   3.7513786e+01   3.4664680e+01   2.8150000e+01   2.6870117e+01   2.5150000e+01   2.5150000e+01   2.3777708e+01   2.2707586e+01   2.1877584e+01   2.0150000e+01   1.6966309e+01   1.5544195e+01   3.5321412e+00   1.9551321e+00             NaN             NaN             NaN             NaN             NaN             NaN             NaN             NaN             NaN             NaN             NaN             NaN             NaN             NaN             NaN             NaN             NaN             NaN             NaN             NaN             NaN             NaN             NaN             NaN             NaN             NaN             NaN             NaN             NaN             NaN             NaN             NaN             NaN
6.2584308e+02   6.2501880e+02   6.2457996e+02   6.2445697e+02   6.2415002e+02   6.2445697e+02   6.2515002e+02   6.2642102e+02   6.2246082e+02   6.0352142e+02   6.0315002e+02   6.0315002e+02   6.0315002e+02   6.0150177e+02   5.8478735e+02   5.7930676e+02   5.7715002e+02   5.6913989e+02   5.6645697e+02   5.6223969e+02   5.5998566e+02   5.5444116e+02   5.4334888e+02   5.3453516e+02   5.3615002e+02   5.3257440e+02   5.2815002e+02   5.2215002e+02   5.0439786e+02   5.0145697e+02   5.0114999e+02   4.9977353e+02   4.8740042e+02   4.8313699e+02   4.8229434e+02   4.7571103e+02   4.6946814e+02   4.6161172e+02   4.4566534e+02   4.4376389e+02   4.4214999e+02   4.2962457e+02   4.2545694e+02   4.2614999e+02   4.2143948e+02   4.0465930e+02   4.0525830e+02   3.8001675e+02   3.7876392e+02   3.7964450e+02   3.6370163e+02   3.5563968e+02   3.4951532e+02   3.4841394e+02   3.4178714e+02   3.3933124e+02   3.6420306e+02   3.6806259e+02   4.2086865e+02   4.1890909e+02   4.1547659e+02   4.1153735e+02   4.0506290e+02   4.0151291e+02   3.9793005e+02   3.2067966e+02   3.1158899e+02   3.0320605e+02   2.9465338e+02   2.8335995e+02   2.7225278e+02   2.5602734e+02   2.4720532e+02   2.3829398e+02   2.2180005e+02   2.1774246e+02   2.1301732e+02   1.9945695e+02   1.9157231e+02   1.8939960e+02   1.7696835e+02   1.7305438e+02   1.7155045e+02   1.6907086e+02   1.5867868e+02   1.5684302e+02   1.5354437e+02   1.4886960e+02   1.3784303e+02   1.3688268e+02   1.3576799e+02   1.3956833e+02   1.3437784e+02   1.3309572e+02   1.2987029e+02   1.2352197e+02   1.1714674e+02   1.0914642e+02   1.0415636e+02   1.0376127e+02   9.9453583e+01   9.7134560e+01   9.2130943e+01   9.1122589e+01   9.0150002e+01   8.6150002e+01   8.4150002e+01   8.4150002e+01   8.1456955e+01   8.0422630e+01   7.8150002e+01   7.7362762e+01   7.5411537e+01   7.5150002e+01   7.4633827e+01   7.2150002e+01   7.2150002e+01   7.1941780e+01   6.9150002e+01   6.7756203e+01   6.2980656e+01   6.2228699e+01   6.2150002e+01   6.2150002e+01   6.0564857e+01   5.8938904e+01   5.8150002e+01   5.5150002e+01   5.3441586e+01   4.6797218e+01   4.5897156e+01   4.5150002e+01   4.5150002e+01   4.5026920e+01   4.4736977e+01   4.3548424e+01   3.8881638e+01   3.7150002e+01   3.7150002e+01   3.6203468e+01   3.2910767e+01   2.7997324e+01   2.5150000e+01   2.5150000e+01   2.5150000e+01   2.3150000e+01   2.2843390e+01   2.1448256e+01   1.9568274e+01   1.6581656e+01   7.6959705e+00   2.5321412e+00   1.1500000e+00             NaN             NaN             NaN             NaN             NaN             NaN             NaN             NaN             NaN             NaN             NaN             NaN             NaN             NaN             NaN             NaN             NaN             NaN             NaN             NaN             NaN             NaN             NaN             NaN             NaN             NaN             NaN             NaN             NaN             NaN             NaN             NaN             NaN
6.2775916e+02   6.2745459e+02   6.2745459e+02   6.2860559e+02   6.3113489e+02   6.3115002e+02   6.3045459e+02   6.3018573e+02   6.3018207e+02   6.1328699e+02   6.0587012e+02   6.0404272e+02   6.0404639e+02   6.0418115e+02   5.9407819e+02   5.8415002e+02   5.8415002e+02   5.7370306e+02   5.6915002e+02   5.6315002e+02   5.6315009e+02   5.6238281e+02   5.6044104e+02   5.5298956e+02   5.3642786e+02   5.3465942e+02   5.3088379e+02   5.2969000e+02   5.1928552e+02   5.0941199e+02   5.0482166e+02   5.0315002e+02   4.9314999e+02   4.8814999e+02   4.8490323e+02   4.8237027e+02   4.7214999e+02   4.7121024e+02   4.6408502e+02   4.4518613e+02   4.4243045e+02   4.4276834e+02   4.3338113e+02   4.2804843e+02   4.2888760e+02   4.1503534e+02   4.0906369e+02   3.9998923e+02   3.8606369e+02   3.8614557e+02   3.7139395e+02   3.6865683e+02   3.6835532e+02   4.0128201e+02   4.5943823e+02   4.5337009e+02   4.4264825e+02   4.2670578e+02   4.2411142e+02   4.2007413e+02   4.1397012e+02   4.1261646e+02   4.1023996e+02   4.0421075e+02   3.3215146e+02   3.2004193e+02   3.1260751e+02   2.9845084e+02   2.8910818e+02   2.7505728e+02   2.6400797e+02   2.5210632e+02   2.4225302e+02   2.3726538e+02   2.2259326e+02   2.1502682e+02   2.1215659e+02   1.9984543e+02   1.9635783e+02   1.9314999e+02   1.9036826e+02   1.8356207e+02   1.7553799e+02   1.6970270e+02   1.6184543e+02   1.5545456e+02   1.5432956e+02   1.4769409e+02   1.4645752e+02   1.5397668e+02   1.5815962e+02   1.5575404e+02   1.5207309e+02   1.4886256e+02   1.4342340e+02   1.3283330e+02   1.2493118e+02   1.1555280e+02   1.0818335e+02   1.0515000e+02   1.0313984e+02   9.8134560e+01   9.5092636e+01   9.1150002e+01   9.0809563e+01   8.9895485e+01   8.6021690e+01   8.4123291e+01   8.2745674e+01   8.0150002e+01   7.8150002e+01   7.8150002e+01   7.7944176e+01   7.5405823e+01   7.3402168e+01   7.2150002e+01   7.1454567e+01   7.2005196e+01   7.0776588e+01   6.7897705e+01   6.3150005e+01   6.3150002e+01   6.2454567e+01   6.2369133e+01   6.1150002e+01   5.9150002e+01   5.8150002e+01   5.5150002e+01   5.4350792e+01   4.6797218e+01   4.6150002e+01   4.5150002e+01   4.5150002e+01   4.5150002e+01   4.4150002e+01   4.2549801e+01   3.7150002e+01   3.7150002e+01   3.7150002e+01   3.6187187e+01   2.9791815e+01   2.6652624e+01   2.5150000e+01   2.5150000e+01   2.4825024e+01   2.3150000e+01   2.3150000e+01   2.0976507e+01   1.8972826e+01   1.6375374e+01   4.4241371e+00   1.9618214e+00   4.0737107e-01             NaN             NaN             NaN             NaN             NaN             NaN             NaN             NaN             NaN             NaN             NaN             NaN             NaN             NaN             NaN             NaN             NaN             NaN             NaN             NaN             NaN             NaN             NaN             NaN             NaN             NaN             NaN             NaN             NaN             NaN             NaN             NaN             NaN
6.3356738e+02   6.3302112e+02   6.3320361e+02   6.3219995e+02   6.3215002e+02   6.3315002e+02   6.3315002e+02   6.3315002e+02   6.3215002e+02   6.2836414e+02   6.0850867e+02   6.0677521e+02   6.0711035e+02   6.0615002e+02   6.0244226e+02   5.8689978e+02   5.8476648e+02   5.8415009e+02   5.7431049e+02   5.6647137e+02   5.6715002e+02   5.6677588e+02   5.6282269e+02   5.5556140e+02   5.3770135e+02   5.3615002e+02   5.3572559e+02   5.3331677e+02   5.3096033e+02   5.1701428e+02   5.0834052e+02   5.0703995e+02   5.0476791e+02   4.9228778e+02   4.8600470e+02   4.8285684e+02   4.7856894e+02   4.7897949e+02   4.7105655e+02   4.6277310e+02   4.4771109e+02   4.4700690e+02   4.4525470e+02   4.4267542e+02   4.3252042e+02   4.2801462e+02   4.1716312e+02   4.1182712e+02   3.9599826e+02   3.9577158e+02   4.0754892e+02   4.6514163e+02   4.7184763e+02   4.5516418e+02   4.5046957e+02   4.4777402e+02   4.4713385e+02   4.2788879e+02   4.2472049e+02   4.2030392e+02   4.1645688e+02   4.1368350e+02   3.9744717e+02   3.3745871e+02   3.2868686e+02   3.1492407e+02   3.0584058e+02   2.9110043e+02   2.7946091e+02   2.7188895e+02   2.6252353e+02   2.5142947e+02   2.4462219e+02   2.3653531e+02   2.2428513e+02   2.1414999e+02   2.1234940e+02   2.0977991e+02   2.0464642e+02   1.9942838e+02   1.9752396e+02   1.8759248e+02   1.7584782e+02   1.6601942e+02   1.6399928e+02   1.5850574e+02   1.5681348e+02   1.6497638e+02   1.6965582e+02   2.4445216e+02   1.9398657e+02   1.9153583e+02   1.6577576e+02   1.5853308e+02   1.5050024e+02   1.4393224e+02   1.2932919e+02   1.2091332e+02   1.1218519e+02   1.0646688e+02   1.0415000e+02   9.8436729e+01   9.7130814e+01   9.3295227e+01   9.1150002e+01   9.0150002e+01   8.6429298e+01   8.3786629e+01   8.2050240e+01   8.0418373e+01   7.9026100e+01   7.8150002e+01   7.8407455e+01   7.8150002e+01   7.3977943e+01   7.2965889e+01   7.2090721e+01   7.1295303e+01   7.1150002e+01   6.5543762e+01   6.3149998e+01   6.2406384e+01   6.3150002e+01   6.2869484e+01   6.1150002e+01   5.9242043e+01   5.8150002e+01   5.6452171e+01   5.5809273e+01   4.7150002e+01   4.6039757e+01   4.4773109e+01   4.4847832e+01   4.4429810e+01   4.4150002e+01   4.2150002e+01   3.7150002e+01   3.7150002e+01   3.6708458e+01   3.4150002e+01   2.7664679e+01   2.6999708e+01   2.5150000e+01   2.5150000e+01   2.4616491e+01   2.3150000e+01   2.2592413e+01   2.0150000e+01   1.7974220e+01   1.0193497e+01   3.5441957e+00   1.5321411e+00             NaN             NaN             NaN             NaN             NaN             NaN             NaN             NaN             NaN             NaN             NaN             NaN             NaN             NaN             NaN             NaN             NaN             NaN             NaN             NaN             NaN             NaN             NaN             NaN             NaN             NaN             NaN             NaN             NaN             NaN             NaN             NaN             NaN             NaN
6.4344983e+02   6.4207416e+02   6.3815741e+02   6.3513330e+02   6.3344977e+02   6.3315002e+02   6.3341107e+02   6.3406805e+02   6.3441833e+02   6.3160956e+02   6.1784601e+02   6.0979779e+02   6.0944977e+02   6.1015002e+02   6.0251849e+02   6.0216455e+02   5.8704669e+02   5.8534912e+02   5.8415002e+02   5.8414996e+02   5.6914996e+02   5.6911389e+02   5.6615009e+02   5.6323706e+02   5.4325006e+02   5.4014996e+02   5.4044977e+02   5.4056781e+02   5.3110925e+02   5.2062036e+02   5.1604932e+02   5.0814999e+02   5.0733981e+02   5.0097015e+02   4.8811533e+02   4.8591727e+02   4.8498734e+02   4.8244980e+02   4.7937289e+02   4.6958859e+02   4.6127927e+02   4.5524832e+02   4.5640128e+02   4.4827103e+02   4.4594769e+02   4.3821387e+02   4.2326105e+02   4.2037823e+02   4.2867053e+02   5.0294641e+02   4.8456546e+02   4.6812128e+02   4.6414999e+02   4.4846347e+02   4.4814999e+02   4.4782706e+02   4.4038794e+02   4.2579062e+02   4.2700089e+02   4.1144974e+02   4.1400143e+02   3.7082230e+02   3.4530496e+02   3.3074237e+02   3.1832605e+02   3.0824014e+02   3.0224478e+02   2.9244974e+02   2.7690225e+02   2.7385022e+02   2.6510434e+02   2.5338422e+02   2.4491748e+02   2.4037094e+02   2.3373624e+02   2.2857027e+02   2.2439194e+02   2.1123204e+02   2.0974953e+02   2.0014999e+02   1.9344554e+02   1.8792448e+02   1.8040179e+02   1.7220251e+02   1.6710342e+02   1.7314029e+02   2.0315005e+02   2.5537955e+02   2.5384839e+02   2.4879575e+02   1.8806163e+02   1.9206879e+02   1.8711813e+02   1.5658626e+02   1.4973311e+02   1.4516704e+02   1.2697120e+02   1.1899020e+02   1.1087717e+02   1.0615866e+02   1.0515000e+02   9.9445137e+01   9.7158241e+01   9.6150002e+01   9.6005539e+01   9.0430695e+01   9.0150002e+01   8.3423477e+01   8.2080147e+01   8.1116470e+01   7.9150002e+01   7.9054825e+01   7.8405411e+01   7.8150002e+01   7.3729759e+01   7.3150002e+01   7.2150002e+01   7.1595573e+01   7.1929764e+01   6.8988503e+01   6.3376518e+01   6.2970474e+01   6.2930710e+01   6.2869484e+01   6.1945137e+01   6.0358459e+01   5.9150002e+01   5.6620064e+01   5.5047863e+01   4.6797218e+01   4.4785164e+01   4.4150002e+01   4.4150002e+01   4.4150002e+01   4.3026192e+01   4.1724892e+01   3.6850235e+01   3.5535698e+01   3.4311504e+01   3.3676735e+01   2.7664679e+01   2.6150000e+01   2.5493534e+01   2.5150000e+01   2.3616491e+01   2.3150000e+01   2.2592413e+01   2.0451351e+01   1.7275383e+01   8.2789326e+00   2.5441957e+00             NaN             NaN             NaN             NaN             NaN             NaN             NaN             NaN             NaN             NaN             NaN             NaN             NaN             NaN             NaN             NaN             NaN             NaN             NaN             NaN             NaN             NaN             NaN             NaN             NaN             NaN             NaN             NaN             NaN             NaN             NaN             NaN             NaN             NaN             NaN
6.5174475e+02   6.4712354e+02   6.4297485e+02   6.4215002e+02   6.4285266e+02   6.3792603e+02   6.3444739e+02   6.3515002e+02   6.3515002e+02   6.3517767e+02   6.2850427e+02   6.1155725e+02   6.1144739e+02   6.1144739e+02   6.1147040e+02   6.0495734e+02   5.9627417e+02   5.9063922e+02   5.9133032e+02   5.8551672e+02   5.8384460e+02   5.7004211e+02   5.6844739e+02   5.6820319e+02   5.5403308e+02   5.4784192e+02   5.4815002e+02   5.4762091e+02   5.4062421e+02   5.3727203e+02   5.1964874e+02   5.1404797e+02   5.0874466e+02   5.0801218e+02   4.9925241e+02   4.9418939e+02   4.8560657e+02   4.8561905e+02   4.8492883e+02   4.7870078e+02   4.7353653e+02   4.7273889e+02   4.6934955e+02   4.6314780e+02   4.5340433e+02   4.4746292e+02   4.3587582e+02   4.7289737e+02   5.0008182e+02   4.8180594e+02   4.7147784e+02   4.6556241e+02   4.6272226e+02   4.5085263e+02   4.4874472e+02   4.4755527e+02   4.3831766e+02   4.1891022e+02   4.0420865e+02   3.6598172e+02   3.5730978e+02   3.4769138e+02   3.3857733e+02   3.2975818e+02   3.1747110e+02   3.0992038e+02   2.9683075e+02   2.9614999e+02   2.8330548e+02   2.7347800e+02   2.7114999e+02   2.5037827e+02   2.4451923e+02   2.3891058e+02   2.3680670e+02   2.3384738e+02   2.3072153e+02   2.1223138e+02   2.0777008e+02   2.0520296e+02   1.9502039e+02   1.9066504e+02   1.8421249e+02   1.8279767e+02   2.1230997e+02   2.6307568e+02   2.6544736e+02   2.6222067e+02   2.5885913e+02   2.5366725e+02   2.4743201e+02   1.8996280e+02   1.5563084e+02   1.4467268e+02   1.3639566e+02   1.2943460e+02   1.2236083e+02   1.1626412e+02   1.0889408e+02   1.0615609e+02   1.0515000e+02   9.9442772e+01   9.8150002e+01   9.7150002e+01   9.7150002e+01   9.4889046e+01   9.0799461e+01   8.5689980e+01   8.2150002e+01   8.1038155e+01   8.0150002e+01   7.9150002e+01   7.9150002e+01   7.9037560e+01   7.4150009e+01   7.3392616e+01   7.3150002e+01   7.2385445e+01   7.2381866e+01   7.0428032e+01   6.4203011e+01   6.3371128e+01   6.3070171e+01   6.2150002e+01   6.2150002e+01   6.1150002e+01   5.9833351e+01   5.7821297e+01   5.4440762e+01   4.6499855e+01   4.4596291e+01   4.4150002e+01   4.4150002e+01   4.3749031e+01   4.2736977e+01   3.8599342e+01   3.5317379e+01   3.5150002e+01   3.4688759e+01   3.3536003e+01   2.7150000e+01   2.6150000e+01   2.5805285e+01   2.5150000e+01   2.3616491e+01   2.3150000e+01   2.2150000e+01   1.9580359e+01   1.7150000e+01   4.5562196e+00   2.4269764e+00             NaN             NaN             NaN             NaN             NaN             NaN             NaN             NaN             NaN             NaN             NaN             NaN             NaN             NaN             NaN             NaN             NaN             NaN             NaN             NaN             NaN             NaN             NaN             NaN             NaN             NaN             NaN             NaN             NaN             NaN             NaN             NaN             NaN             NaN             NaN
6.7203497e+02   6.6174792e+02   6.5008856e+02   6.4644507e+02   6.4519525e+02   6.4348663e+02   6.4305896e+02   6.4215002e+02   6.3831702e+02   6.3935199e+02   6.3619775e+02   6.1587781e+02   6.1444501e+02   6.1345825e+02   6.1344501e+02   6.1246576e+02   6.0512775e+02   6.0273798e+02   6.0099573e+02   5.8415002e+02   5.8412213e+02   5.7215002e+02   5.7244501e+02   5.7271735e+02   5.6903497e+02   5.5639874e+02   5.4932996e+02   5.4915002e+02   5.4915002e+02   5.3986639e+02   5.2086896e+02   5.1915002e+02   5.1731519e+02   5.1487341e+02   5.1139273e+02   5.0368106e+02   4.8891647e+02   4.8822208e+02   4.8844498e+02   4.8836578e+02   4.8281931e+02   4.7952692e+02   4.7556024e+02   4.7110666e+02   4.6388864e+02   4.5696552e+02   4.6624142e+02   4.9689209e+02   4.8413699e+02   4.7416827e+02   4.6819910e+02   4.6373996e+02   4.6135507e+02   4.4572607e+02   4.3295834e+02   4.0025009e+02   3.8986813e+02   3.8033743e+02   3.7026663e+02   3.6649805e+02   3.5240234e+02   3.4605255e+02   3.3495023e+02   3.3110257e+02   3.1803806e+02   3.1323334e+02   3.0095901e+02   2.9151468e+02   2.8553214e+02   2.7188907e+02   2.7046524e+02   2.5371898e+02   2.5081793e+02   2.5014999e+02   2.4173993e+02   2.3559207e+02   2.3135147e+02   2.1444498e+02   2.1466275e+02   2.0534285e+02   1.9669496e+02   1.9490019e+02   2.1714641e+02   2.7472397e+02   2.7386398e+02   2.7041153e+02   2.6644498e+02   2.6530322e+02   2.5800967e+02   2.2642139e+02   1.5657735e+02   1.4416934e+02   1.3770258e+02   1.3136987e+02   1.2640284e+02   1.1969707e+02   1.1563644e+02   1.1120583e+02   1.0687576e+02   1.0585758e+02   1.0384925e+02   1.0115000e+02   1.0079687e+02   9.8150002e+01   9.7150002e+01   9.7105141e+01   9.3695305e+01   8.9778984e+01   8.3415550e+01   8.2071152e+01   8.0150002e+01   8.0054169e+01   8.0045670e+01   7.9150002e+01   7.5710609e+01   7.3855034e+01   7.3716728e+01   7.3150002e+01   7.2994728e+01   7.0307930e+01   6.4905647e+01   6.3893623e+01   6.3150005e+01   6.2362228e+01   6.2150002e+01   6.1150002e+01   5.9833351e+01   5.8348019e+01   5.5809273e+01   4.5797218e+01   4.4150002e+01   4.4150002e+01   4.4150002e+01   4.4150002e+01   4.2736977e+01   3.8599342e+01   3.5150002e+01   3.5150002e+01   3.4855026e+01   3.3203468e+01   2.7150000e+01   2.6150000e+01   2.6150000e+01   2.5150000e+01   2.4082983e+01   2.3150000e+01   2.1821051e+01   1.9580359e+01   1.7273298e+01   4.2612443e+00   1.5441955e+00             NaN             NaN             NaN             NaN             NaN             NaN             NaN             NaN             NaN             NaN             NaN             NaN             NaN             NaN             NaN             NaN             NaN             NaN             NaN             NaN             NaN             NaN             NaN             NaN             NaN             NaN             NaN             NaN             NaN             NaN             NaN             NaN             NaN             NaN             NaN
6.7644263e+02   6.7701605e+02   6.7469666e+02   6.7226697e+02   6.7048743e+02   6.4940991e+02   6.4418787e+02   6.4380884e+02   6.4173523e+02   6.4075586e+02   6.3909491e+02   6.2211487e+02   6.2015002e+02   6.1802771e+02   6.1675836e+02   6.1644257e+02   6.1474994e+02   6.0502380e+02   6.0143805e+02   5.9119409e+02   5.8411053e+02   5.8315009e+02   5.7584967e+02   5.7417212e+02   5.7315002e+02   5.7063538e+02   5.6606512e+02   5.4944263e+02   5.4915002e+02   5.4675323e+02   5.2774664e+02   5.2226935e+02   5.1915875e+02   5.1915002e+02   5.1844257e+02   5.0742480e+02   4.9403061e+02   4.8973511e+02   4.9036758e+02   4.8959967e+02   4.9066519e+02   4.8764957e+02   4.8313797e+02   4.7603909e+02   4.6706366e+02   4.7188907e+02   4.8582098e+02   4.8161630e+02   4.7886630e+02   4.6671027e+02   4.5891745e+02   4.4020047e+02   4.2787265e+02   4.2165170e+02   4.0357727e+02   3.9885739e+02   3.8237973e+02   3.7894974e+02   3.6556485e+02   3.6378961e+02   3.5880203e+02   3.4880057e+02   3.4291220e+02   3.3114999e+02   3.2503802e+02   3.0894214e+02   3.0460251e+02   2.9249155e+02   2.8714999e+02   2.7502637e+02   2.6873514e+02   2.6835245e+02   2.5691138e+02   2.4995966e+02   2.4353323e+02   2.3594460e+02   2.2996918e+02   2.1848044e+02   2.1536484e+02   2.1604581e+02   2.3126077e+02   2.8508774e+02   2.8800967e+02   2.7285739e+02   2.7672699e+02   2.7226886e+02   2.6929507e+02   2.4163226e+02   1.6994904e+02   1.5202921e+02   1.4277393e+02   1.3660907e+02   1.3527019e+02   1.2566947e+02   1.1970261e+02   1.1527067e+02   1.1218169e+02   1.0889976e+02   1.0675587e+02   1.0515000e+02   1.0214901e+02   1.0115000e+02   1.0115000e+02   9.8431000e+01   9.7442581e+01   9.6812416e+01   9.5096458e+01   9.1658165e+01   8.4079422e+01   8.2409851e+01   8.1026100e+01   8.0150002e+01   8.0150002e+01   7.9744217e+01   7.8512108e+01   7.4727188e+01   7.3581345e+01   7.3150002e+01   7.3150002e+01   7.2150002e+01   6.4905647e+01   6.4150002e+01   6.3150002e+01   6.3150002e+01   6.2649544e+01   6.1150002e+01   6.0033279e+01   5.9150002e+01   5.6761120e+01   4.5797218e+01   4.4335831e+01   4.4150002e+01   4.4150002e+01   4.3726231e+01   4.2736977e+01   3.5150002e+01   3.4857430e+01   3.4150002e+01   3.4150002e+01   3.1267878e+01   2.7150000e+01   2.6150000e+01   2.5150000e+01   2.5150000e+01   2.3150000e+01   2.3150000e+01   2.0592413e+01   1.9413698e+01   1.0458441e+01   3.5562196e+00   1.4288650e+00             NaN             NaN             NaN             NaN             NaN             NaN             NaN             NaN             NaN             NaN             NaN             NaN             NaN             NaN             NaN             NaN             NaN             NaN             NaN             NaN             NaN             NaN             NaN             NaN             NaN             NaN             NaN             NaN             NaN             NaN             NaN             NaN             NaN             NaN             NaN
6.8215002e+02   6.8042383e+02   6.7656604e+02   6.7515002e+02   6.7210553e+02   6.6988257e+02   6.5320947e+02   6.4472717e+02   6.4444019e+02   6.4515002e+02   6.4855798e+02   6.4187994e+02   6.2124725e+02   6.2015002e+02   6.2085986e+02   6.2087189e+02   6.1716235e+02   6.1512067e+02   6.0215002e+02   6.0115002e+02   5.8540063e+02   5.8315002e+02   5.8315002e+02   5.8307434e+02   5.7578699e+02   5.7521381e+02   5.6996204e+02   5.5246661e+02   5.5273041e+02   5.5165027e+02   5.4847821e+02   5.2912292e+02   5.2201855e+02   5.2015002e+02   5.1892023e+02   5.0821628e+02   4.9736325e+02   4.9514999e+02   4.9466336e+02   4.9594260e+02   4.9398511e+02   4.9085745e+02   4.8554080e+02   4.7899063e+02   4.8113754e+02   4.9167648e+02   4.9283368e+02   4.9106396e+02   4.9611374e+02   4.5836005e+02   4.4333139e+02   4.3061273e+02   4.1890329e+02   4.1411353e+02   3.9984430e+02   3.9468875e+02   3.9016437e+02   3.8003754e+02   3.6950681e+02   3.6720016e+02   3.5714999e+02   3.5213052e+02   3.4396082e+02   3.3034335e+02   3.2444016e+02   3.1266867e+02   3.0485983e+02   2.9329193e+02   2.8614304e+02   2.8614999e+02   2.7516055e+02   2.6898697e+02   2.6315381e+02   2.5056339e+02   2.4594974e+02   2.3916840e+02   2.3137521e+02   2.2961913e+02   2.5760352e+02   3.0411920e+02   3.0135971e+02   2.9198990e+02   2.9311697e+02   2.8531094e+02   2.7373032e+02   2.7366263e+02   1.9122131e+02   1.6553349e+02   1.5875180e+02   1.5598897e+02   1.4373309e+02   1.3965353e+02   1.3373489e+02   1.2173153e+02   1.1819889e+02   1.1687633e+02   1.1518180e+02   1.0915000e+02   1.0915000e+02   1.0602917e+02   1.0214661e+02   1.0115000e+02   1.0115797e+02   9.9150002e+01   9.8113396e+01   9.6150002e+01   9.6118240e+01   9.4974586e+01   8.5079185e+01   8.3150002e+01   8.2026100e+01   8.0440170e+01   8.0150002e+01   8.0150002e+01   7.9565636e+01   7.5386742e+01   7.4440170e+01   7.4587975e+01   7.4219925e+01   7.2985107e+01   6.5150002e+01   6.4150002e+01   6.3959438e+01   6.3149998e+01   6.3150002e+01   6.2351791e+01   6.0833351e+01   5.9344795e+01   5.7809273e+01   4.5899586e+01   4.4255863e+01   4.4150002e+01   4.4150002e+01   4.4150002e+01   4.2736977e+01   3.5150002e+01   3.4150002e+01   3.4150002e+01   3.3725998e+01   3.1203466e+01   2.6859831e+01   2.5150000e+01   2.5150000e+01   2.5150000e+01   2.3150000e+01   2.2604437e+01   2.0592413e+01   1.9010717e+01   9.7510128e+00   2.5562196e+00   1.1500000e+00             NaN             NaN             NaN             NaN             NaN             NaN             NaN             NaN             NaN             NaN             NaN             NaN             NaN             NaN             NaN             NaN             NaN             NaN             NaN             NaN             NaN             NaN             NaN             NaN             NaN             NaN             NaN             NaN             NaN             NaN             NaN             NaN             NaN             NaN             NaN
6.8415002e+02   6.8415002e+02   6.7922046e+02   6.7815479e+02   6.7273767e+02   6.6908472e+02   6.6022522e+02   6.5200946e+02   6.5046802e+02   6.5108374e+02   6.5078326e+02   6.5112079e+02   6.3718274e+02   6.2292517e+02   6.2366943e+02   6.2015002e+02   6.1815002e+02   6.1515100e+02   6.1291650e+02   6.0458099e+02   6.0122913e+02   5.8572559e+02   5.8543781e+02   5.8543774e+02   5.8550031e+02   5.8180377e+02   5.6815002e+02   5.6015454e+02   5.5653198e+02   5.5505585e+02   5.5519611e+02   5.5270215e+02   5.2296039e+02   5.2049426e+02   5.2104987e+02   5.1715948e+02   5.0245309e+02   4.9915002e+02   4.9843777e+02   4.9888159e+02   5.0006924e+02   4.9393982e+02   4.8665329e+02   4.9067770e+02   4.9801050e+02   4.9690097e+02   4.9764218e+02   5.0958298e+02   4.9093643e+02   4.4826053e+02   4.3437717e+02   4.1988712e+02   4.1324112e+02   4.0955090e+02   4.0886221e+02   3.9363354e+02   3.9152512e+02   3.8335031e+02   3.7031424e+02   3.6800882e+02   3.5664090e+02   3.5294885e+02   3.4388037e+02   3.3134335e+02   3.2376300e+02   3.1167947e+02   3.0432086e+02   3.0299930e+02   2.9046964e+02   2.8680789e+02   2.8204324e+02   2.7281506e+02   2.6310010e+02   2.5358415e+02   2.4923065e+02   2.6547153e+02   3.1965060e+02   3.3081357e+02   3.2595145e+02   3.0743777e+02   3.0612137e+02   2.9655392e+02   2.8824075e+02   2.7546616e+02   2.5956375e+02   1.8470825e+02   1.7044843e+02   1.6053357e+02   1.5590285e+02   1.5342595e+02   1.5160455e+02   1.4602339e+02   1.3147858e+02   1.2028857e+02   1.1723870e+02   1.1615000e+02   1.1610520e+02   1.1072881e+02   1.0815000e+02   1.0815001e+02   1.0813020e+02   1.0115000e+02   1.0142986e+02   1.0038683e+02   9.9150002e+01   9.8374146e+01   9.7074318e+01   9.5062294e+01   9.2351906e+01   8.4038155e+01   8.3061752e+01   8.1437775e+01   8.1150002e+01   8.0150002e+01   7.9732857e+01   7.6150002e+01   7.6150002e+01   7.6090080e+01   7.5150002e+01   7.3685402e+01   6.5437775e+01   6.4893623e+01   6.4150002e+01   6.4150002e+01   6.3150002e+01   6.2933060e+01   6.1150002e+01   5.9821297e+01   5.7809273e+01   4.6150002e+01   4.4890152e+01   4.4150002e+01   4.4150002e+01   4.3864418e+01   4.2736977e+01   3.5193104e+01   3.4150002e+01   3.4150002e+01   3.2150002e+01   3.1404345e+01   2.6150000e+01   2.5150000e+01   2.5150000e+01   2.4778606e+01   2.3150000e+01   2.1150000e+01   2.0465097e+01   1.8128658e+01   4.9825950e+00   2.4393206e+00   5.4419553e-01             NaN             NaN             NaN             NaN             NaN             NaN             NaN             NaN             NaN             NaN             NaN             NaN             NaN             NaN             NaN             NaN             NaN             NaN             NaN             NaN             NaN             NaN             NaN             NaN             NaN             NaN             NaN             NaN             NaN             NaN             NaN             NaN             NaN             NaN             NaN
6.8815002e+02   6.8494952e+02   6.8356213e+02   6.8126819e+02   6.7519379e+02   6.7186194e+02   6.6915002e+02   6.5615552e+02   6.5426996e+02   6.5415002e+02   6.5415002e+02   6.5315002e+02   6.4953290e+02   6.4128436e+02   6.2501215e+02   6.2142651e+02   6.1815002e+02   6.1814905e+02   6.1572083e+02   6.1470123e+02   6.1455133e+02   6.0946631e+02   6.0607184e+02   5.9876495e+02   5.8715002e+02   5.8793799e+02   5.6979858e+02   5.6740002e+02   5.6122156e+02   5.5960895e+02   5.5815002e+02   5.5627301e+02   5.3693457e+02   5.2374902e+02   5.2415002e+02   5.2127942e+02   5.0791287e+02   5.0154617e+02   5.0022318e+02   5.0091260e+02   5.0223001e+02   4.9814285e+02   4.9629196e+02   5.0460254e+02   5.0197556e+02   5.0542667e+02   5.1663635e+02   5.0071338e+02   4.5484061e+02   4.3868970e+02   4.3057550e+02   4.2468979e+02   4.1186459e+02   4.0888376e+02   4.0654361e+02   4.0120593e+02   3.9014999e+02   3.8882419e+02   3.7760440e+02   3.6606982e+02   3.5840469e+02   3.5148343e+02   3.4047476e+02   3.3191199e+02   3.2345755e+02   3.1172089e+02   3.0514999e+02   3.0393842e+02   3.0246487e+02   2.9154099e+02   2.8347458e+02   2.7556747e+02   2.6386655e+02   2.6623874e+02   3.4132108e+02   3.4023260e+02   3.3343576e+02   3.3211197e+02   3.2914999e+02   3.0700946e+02   2.9367801e+02   2.7592899e+02   2.6297888e+02   2.0678847e+02   1.9522867e+02   1.7693390e+02   1.6805132e+02   1.6228214e+02   1.5678922e+02   1.5214999e+02   1.5298264e+02   1.5114999e+02   1.2859482e+02   1.2051631e+02   1.1823853e+02   1.1715000e+02   1.1614999e+02   1.1515000e+02   1.0875628e+02   1.0815000e+02   1.0814662e+02   1.0143097e+02   1.0115000e+02   1.0083636e+02   9.9150002e+01   9.9104530e+01   9.7150002e+01   9.5062294e+01   9.2451225e+01   8.5038155e+01   8.3435379e+01   8.3435379e+01   8.2329628e+01   8.0150002e+01   7.9913727e+01   7.6435371e+01   7.6150002e+01   7.6150002e+01   7.6150009e+01   7.4917702e+01   6.6365646e+01   6.5362213e+01   6.4358772e+01   6.4150002e+01   6.4150002e+01   6.3150002e+01   6.1923714e+01   6.0150002e+01   5.7809273e+01   4.6334702e+01   4.5150002e+01   4.4042446e+01   4.3864624e+01   4.3150002e+01   4.1323952e+01   3.5846207e+01   3.4150002e+01   3.4150002e+01   3.2303749e+01   3.0353785e+01   2.6150000e+01   2.5150000e+01   2.5150000e+01   2.5150000e+01   2.3150000e+01   2.1150000e+01   2.0150000e+01   1.6887903e+01   4.2828965e+00   1.5562195e+00             NaN             NaN             NaN             NaN             NaN             NaN             NaN             NaN             NaN             NaN             NaN             NaN             NaN             NaN             NaN             NaN             NaN             NaN             NaN             NaN             NaN             NaN             NaN             NaN             NaN             NaN             NaN             NaN             NaN             NaN             NaN             NaN             NaN             NaN             NaN             NaN
6.9071594e+02   6.8976953e+02   6.8891724e+02   6.8185632e+02   6.7660645e+02   6.7763611e+02   6.7080859e+02   6.6958325e+02   6.5834668e+02   6.5522894e+02   6.5515002e+02   6.5515002e+02   6.5315002e+02   6.5022021e+02   6.4043298e+02   6.2946002e+02   6.1986951e+02   6.1815002e+02   6.1743298e+02   6.1616553e+02   6.1683862e+02   6.1345544e+02   6.1374072e+02   6.0045789e+02   5.9215002e+02   5.8999902e+02   5.8762671e+02   5.6934424e+02   5.6853046e+02   5.6411444e+02   5.6076373e+02   5.5615002e+02   5.5322467e+02   5.3120551e+02   5.2856494e+02   5.2590381e+02   5.2653424e+02   5.2463257e+02   5.1633002e+02   5.1137244e+02   5.1035593e+02   5.0376413e+02   5.0769437e+02   5.0906039e+02   5.0996664e+02   5.1905719e+02   4.8254221e+02   4.6082904e+02   4.4726584e+02   4.3707556e+02   4.3343298e+02   4.3172913e+02   4.2114999e+02   4.0956387e+02   4.0873990e+02   4.0530246e+02   3.9014999e+02   3.8978098e+02   3.8429224e+02   3.6506772e+02   3.5165793e+02   3.4814999e+02   3.4214999e+02   3.3662680e+02   3.2327176e+02   3.1372910e+02   3.0709695e+02   3.0556393e+02   3.0373944e+02   2.9352011e+02   2.8527823e+02   2.7604947e+02   2.9635013e+02   3.4224463e+02   3.4390353e+02   3.4378275e+02   3.3507990e+02   3.1014999e+02   3.0498172e+02   3.0040070e+02   2.8594220e+02   2.3595384e+02   2.1553159e+02   1.9966611e+02   1.9219049e+02   1.8120020e+02   1.6729111e+02   1.6414999e+02   1.6380574e+02   1.5309393e+02   1.5314999e+02   1.5161334e+02   1.2671194e+02   1.2262998e+02   1.2329065e+02   1.1930447e+02   1.1519480e+02   1.1487628e+02   1.1121217e+02   1.0843299e+02   1.0686459e+02   1.0511679e+02   1.0142521e+02   9.9867020e+01   9.9150002e+01   9.9150002e+01   9.8074318e+01   9.5749069e+01   9.2850716e+01   8.6887100e+01   8.4150002e+01   8.4150002e+01   8.4043892e+01   8.0150002e+01   8.0150002e+01   7.7150002e+01   7.6953835e+01   7.6150002e+01   7.6150002e+01   7.5150002e+01   6.7974800e+01   6.5966179e+01   6.5150002e+01   6.5150002e+01   6.4642761e+01   6.4150002e+01   6.2150002e+01   6.0914314e+01   5.8767433e+01   4.6897049e+01   4.5785164e+01   4.5150002e+01   4.4432983e+01   4.3375565e+01   4.0736977e+01   3.5867020e+01   3.3990719e+01   3.4150002e+01   3.2150002e+01   2.9150000e+01   2.6150000e+01   2.5150000e+01   2.5150000e+01   2.5150000e+01   2.3150000e+01   2.1150000e+01   2.0150000e+01   1.0883947e+01   3.4499099e+00             NaN             NaN             NaN             NaN             NaN             NaN             NaN             NaN             NaN             NaN             NaN             NaN             NaN             NaN             NaN             NaN             NaN             NaN             NaN             NaN             NaN             NaN             NaN             NaN             NaN             NaN             NaN             NaN             NaN             NaN             NaN             NaN             NaN             NaN             NaN             NaN             NaN
6.9543060e+02   6.9520312e+02   6.9271118e+02   6.8999176e+02   6.8236047e+02   6.8127234e+02   6.7943060e+02   6.7599176e+02   6.7323846e+02   6.6003900e+02   6.5619543e+02   6.5515002e+02   6.5348749e+02   6.5178821e+02   6.5114484e+02   6.4321844e+02   6.3416217e+02   6.2014996e+02   6.1915436e+02   6.1915771e+02   6.1916113e+02   6.1763068e+02   6.1382367e+02   6.0589069e+02   5.9590582e+02   5.9217804e+02   5.9235016e+02   5.9225244e+02   5.7005225e+02   5.6915002e+02   5.6915002e+02   5.6374268e+02   5.5633411e+02   5.3368018e+02   5.3233923e+02   5.3286963e+02   5.3319830e+02   5.3311133e+02   5.1932788e+02   5.1535522e+02   5.1121957e+02   5.1392163e+02   5.1582007e+02   5.1981140e+02   5.2090082e+02   4.8708511e+02   4.7813705e+02   4.5424997e+02   4.4408847e+02   4.3521231e+02   4.3346054e+02   4.3240762e+02   4.3119205e+02   4.1280582e+02   4.0654630e+02   4.0535239e+02   3.9000220e+02   3.8726083e+02   3.8287469e+02   3.6614999e+02   3.5375113e+02   3.4761649e+02   3.4397250e+02   3.4063358e+02   3.2384039e+02   3.2414999e+02   3.2026398e+02   3.1418600e+02   3.0713248e+02   2.9617078e+02   2.8875821e+02   3.0532596e+02   3.4444363e+02   3.3938895e+02   3.3495596e+02   3.3481577e+02   3.1035556e+02   3.0429358e+02   2.9137283e+02   2.5908945e+02   2.4376701e+02   2.2373364e+02   2.1892508e+02   1.9807086e+02   1.9364909e+02   1.8332578e+02   1.6824039e+02   1.6454080e+02   1.6227060e+02   1.5914999e+02   1.5349628e+02   1.5250613e+02   1.2861655e+02   1.2448879e+02   1.2181026e+02   1.2115000e+02   1.1578819e+02   1.1515000e+02   1.1386942e+02   1.0943925e+02   1.0914269e+02   1.0615000e+02   1.0367594e+02   1.0068896e+02   9.9164474e+01   9.9132149e+01   9.8150009e+01   9.8062294e+01   9.2934692e+01   9.0038155e+01   8.6150002e+01   8.4150002e+01   8.4150002e+01   8.1034874e+01   8.0150002e+01   7.8378922e+01   7.7430580e+01   7.6208427e+01   7.6150002e+01   7.5917702e+01   7.2683884e+01   6.6893616e+01   6.6150002e+01   6.5150002e+01   6.5150002e+01   6.4845406e+01   6.3694389e+01   6.1821297e+01   5.9334976e+01   4.7797218e+01   4.6150002e+01   4.5150002e+01   4.5150002e+01   4.3145149e+01   4.0150002e+01   3.4575111e+01   3.3835518e+01   3.4150002e+01   3.2839924e+01   2.7730200e+01   2.6150000e+01   2.6008974e+01   2.5150000e+01   2.5150000e+01   2.3000309e+01   2.0604437e+01   1.9993551e+01   1.0314306e+01   2.5682740e+00   5.5621946e-01             NaN             NaN             NaN             NaN             NaN             NaN             NaN             NaN             NaN             NaN             NaN             NaN             NaN             NaN             NaN             NaN             NaN             NaN             NaN             NaN             NaN             NaN             NaN             NaN             NaN             NaN             NaN             NaN             NaN             NaN             NaN             NaN             NaN             NaN             NaN             NaN
7.1670642e+02   7.0575208e+02   6.9788367e+02   6.9587164e+02   6.9266376e+02   6.9146753e+02   6.8735596e+02   6.8180414e+02   6.7970636e+02   6.7271771e+02   6.6203992e+02   6.5686041e+02   6.5515002e+02   6.5515002e+02   6.5289008e+02   6.5315002e+02   6.4954095e+02   6.4741748e+02   6.4315002e+02   6.4170099e+02   6.2328754e+02   6.1730219e+02   6.1315002e+02   6.0985583e+02   6.0617444e+02   5.9970642e+02   5.9970636e+02   5.9870294e+02   5.9405756e+02   5.7000208e+02   5.6819452e+02   5.6813196e+02   5.6019482e+02   5.4205890e+02   5.3734314e+02   5.3698462e+02   5.3787183e+02   5.3742822e+02   5.2887256e+02   5.1951263e+02   5.2359192e+02   5.2526544e+02   5.2268884e+02   5.2922461e+02   5.0754312e+02   4.8336588e+02   4.7069180e+02   4.5672882e+02   4.5283139e+02   4.3593106e+02   4.3343942e+02   4.3326489e+02   4.3191351e+02   4.2112332e+02   4.0841617e+02   4.0642819e+02   3.9042819e+02   3.8379968e+02   3.8215146e+02   3.6514474e+02   3.6114999e+02   3.4695319e+02   3.4514999e+02   3.4156033e+02   3.3968091e+02   3.2622275e+02   3.2169159e+02   3.1816409e+02   3.0888882e+02   3.0228354e+02   3.1230313e+02   3.4183243e+02   3.4053922e+02   3.2426199e+02   3.1338297e+02   3.0800125e+02   2.9008493e+02   2.8459363e+02   2.6542819e+02   2.6405197e+02   2.4241953e+02   2.2308369e+02   2.1687183e+02   1.9687299e+02   1.9085481e+02   1.8737885e+02   1.8431528e+02   1.6569202e+02   1.6614999e+02   1.5942816e+02   1.5705406e+02   1.5425861e+02   1.3874664e+02   1.2586823e+02   1.2316917e+02   1.2115001e+02   1.2088428e+02   1.1581913e+02   1.1415577e+02   1.1242818e+02   1.1097834e+02   1.0740160e+02   1.0442818e+02   1.0409290e+02   9.9904274e+01   9.8825890e+01   9.8150009e+01   9.8150002e+01   9.4050240e+01   9.1625633e+01   8.9026100e+01   8.6668556e+01   8.4150002e+01   8.3063591e+01   8.0380325e+01   8.0150002e+01   7.9725212e+01   7.6999702e+01   7.6150002e+01   7.5917702e+01   7.5150002e+01   6.8779884e+01   6.6150002e+01   6.6150002e+01   6.5150002e+01   6.5150002e+01   6.4150002e+01   6.2099476e+01   5.9625877e+01   4.9410313e+01   4.6428185e+01   4.6150002e+01   4.5428185e+01   4.0582390e+01   4.0150002e+01   3.5801483e+01   3.4150002e+01   3.4150002e+01   3.2064819e+01   2.8125162e+01   2.6150000e+01   2.5150000e+01   2.5150000e+01   2.5150000e+01   2.3150000e+01   2.1058874e+01   1.9592413e+01   1.0472771e+01   2.8464570e+00             NaN             NaN             NaN             NaN             NaN             NaN             NaN             NaN             NaN             NaN             NaN             NaN             NaN             NaN             NaN             NaN             NaN             NaN             NaN             NaN             NaN             NaN             NaN             NaN             NaN             NaN             NaN             NaN             NaN             NaN             NaN             NaN             NaN             NaN             NaN             NaN             NaN
7.1997736e+02   7.1694171e+02   7.1085364e+02   7.0211414e+02   7.0149451e+02   6.9941870e+02   6.9670160e+02   6.9209448e+02   6.8664441e+02   6.8339746e+02   6.6807092e+02   6.6177051e+02   6.5686444e+02   6.5515002e+02   6.5444958e+02   6.5316498e+02   6.5342346e+02   6.5315002e+02   6.4815002e+02   6.4393469e+02   6.3259357e+02   6.2617841e+02   6.1620282e+02   6.1198560e+02   6.1012585e+02   6.0494989e+02   6.0442584e+02   6.0324640e+02   5.9981323e+02   5.7331860e+02   5.7042578e+02   5.7015002e+02   5.6984167e+02   5.6093848e+02   5.6006921e+02   5.5411932e+02   5.4076465e+02   5.4032660e+02   5.3226587e+02   5.3040094e+02   5.3354462e+02   5.3505261e+02   5.3024854e+02   5.1829681e+02   4.9773471e+02   4.7684964e+02   4.6716864e+02   4.6032516e+02   4.5903958e+02   4.5759842e+02   4.3414999e+02   4.3356302e+02   4.3129984e+02   4.2205014e+02   4.0714999e+02   4.0714999e+02   3.9790640e+02   3.8444705e+02   3.8215527e+02   3.7477151e+02   3.6077234e+02   3.5268066e+02   3.4475488e+02   3.4154776e+02   3.4123026e+02   3.3768365e+02   3.2677029e+02   3.2110550e+02   3.1533731e+02   3.2967111e+02   3.3985342e+02   3.3730515e+02   3.2309616e+02   3.1613705e+02   3.0608206e+02   2.9303134e+02   2.8541580e+02   2.8069534e+02   2.7178613e+02   2.6111420e+02   2.4478250e+02   2.2914067e+02   2.1414656e+02   2.0940698e+02   1.9464519e+02   1.8874576e+02   1.8598471e+02   1.6999643e+02   1.6914999e+02   1.6247758e+02   1.5729938e+02   1.5717896e+02   1.5383624e+02   1.3256010e+02   1.2644478e+02   1.2279960e+02   1.2143815e+02   1.2042579e+02   1.1699238e+02   1.1642818e+02   1.1542579e+02   1.1177224e+02   1.0767408e+02   1.0566885e+02   1.0306107e+02   9.8454315e+01   9.8150002e+01   9.8150002e+01   9.6447029e+01   9.4069000e+01   9.3791077e+01   8.9051559e+01   8.7935661e+01   8.6150002e+01   8.1150002e+01   8.0425789e+01   8.0371689e+01   7.9676140e+01   7.5150002e+01   7.5150002e+01   7.5149994e+01   6.9150002e+01   6.8761154e+01   6.6150002e+01   6.5938118e+01   6.5150002e+01   6.4920677e+01   6.3911949e+01   6.0127815e+01   5.4698265e+01   4.7325172e+01   4.6877052e+01   4.6257259e+01   4.0859612e+01   4.0150002e+01   3.5774967e+01   3.4592312e+01   3.3998093e+01   3.0914854e+01   2.9019480e+01   2.6150000e+01   2.5564404e+01   2.4150000e+01   2.4293810e+01   2.3150000e+01   2.2150000e+01   1.9438637e+01   1.6150000e+01   1.8233937e+00             NaN             NaN             NaN             NaN             NaN             NaN             NaN             NaN             NaN             NaN             NaN             NaN             NaN             NaN             NaN             NaN             NaN             NaN             NaN             NaN             NaN             NaN             NaN             NaN             NaN             NaN             NaN             NaN             NaN             NaN             NaN             NaN             NaN             NaN             NaN             NaN             NaN
7.2597015e+02   7.2167224e+02   7.1697021e+02   7.1015088e+02   7.0612244e+02   7.0700879e+02   7.0715002e+02   7.0625323e+02   7.0327234e+02   6.9553674e+02   6.9213208e+02   6.6796198e+02   6.5945544e+02   6.5616223e+02   6.5542340e+02   6.5468549e+02   6.5342816e+02   6.5414667e+02   6.5307288e+02   6.4811005e+02   6.4603522e+02   6.3326147e+02   6.3015002e+02   6.1746918e+02   6.1214996e+02   6.0964221e+02   6.0915002e+02   6.0870007e+02   6.0228906e+02   5.8050745e+02   5.7348413e+02   5.7142340e+02   5.7142340e+02   5.7129486e+02   5.6658228e+02   5.6228967e+02   5.5211554e+02   5.4680109e+02   5.4486841e+02   5.5069678e+02   5.4118854e+02   5.4904077e+02   5.9384546e+02   5.1150272e+02   4.9125391e+02   4.8394757e+02   4.7154779e+02   4.6105026e+02   4.5838812e+02   4.5714999e+02   4.5731375e+02   4.3681125e+02   4.3129984e+02   4.3074100e+02   4.0957773e+02   4.0614999e+02   4.0502060e+02   3.8548209e+02   3.8314999e+02   3.8114999e+02   3.6067145e+02   3.5927750e+02   3.4569556e+02   3.4598099e+02   3.4614999e+02   3.4038846e+02   3.3166394e+02   3.2438968e+02   3.3298123e+02   3.4054556e+02   3.4205209e+02   3.3203580e+02   3.2297366e+02   3.0871487e+02   3.0311606e+02   2.9545102e+02   2.8779965e+02   2.7896194e+02   2.7625833e+02   2.5994876e+02   2.5307288e+02   2.3116318e+02   2.1342339e+02   2.1114999e+02   1.9818086e+02   1.8792508e+02   1.8614999e+02   1.7157535e+02   1.7032080e+02   1.6691191e+02   1.5783492e+02   1.5814999e+02   1.5592488e+02   1.5448218e+02   1.5223770e+02   1.2875362e+02   1.2556172e+02   1.2497912e+02   1.2169676e+02   1.2069914e+02   1.1869338e+02   1.1683873e+02   1.1240340e+02   1.1035510e+02   1.0537181e+02   1.0204014e+02   9.9095009e+01   9.8149994e+01   9.7150002e+01   9.4180580e+01   9.4389511e+01   9.3853699e+01   8.9150002e+01   8.9033722e+01   8.6923111e+01   8.2908424e+01   8.1150002e+01   8.0149994e+01   7.6423386e+01   7.5150002e+01   7.5150002e+01   7.3124489e+01   6.9150002e+01   6.8219551e+01   6.6857430e+01   6.5928680e+01   6.5329887e+01   6.4333519e+01   6.1452419e+01   5.8150002e+01   4.9712791e+01   4.7320351e+01   4.6159523e+01   4.1150002e+01   4.1037086e+01   3.7914436e+01   3.4712868e+01   3.3300587e+01   2.8688757e+01   2.8676733e+01   2.7664679e+01   2.7012590e+01   2.4640600e+01   2.3628546e+01   2.3150000e+01   2.2150000e+01   1.9034826e+01   1.6775410e+01   6.4124882e-01   4.8316184e-01             NaN             NaN             NaN             NaN             NaN             NaN             NaN             NaN             NaN             NaN             NaN             NaN             NaN             NaN             NaN             NaN             NaN             NaN             NaN             NaN             NaN             NaN             NaN             NaN             NaN             NaN             NaN             NaN             NaN             NaN             NaN             NaN             NaN             NaN             NaN             NaN
7.3887903e+02   7.2837354e+02   7.2357373e+02   7.1729358e+02   7.1023315e+02   7.1111176e+02   7.1115002e+02   7.0775549e+02   7.0715002e+02   7.0516638e+02   7.0222198e+02   6.9459619e+02   6.6776953e+02   6.6398352e+02   6.6342987e+02   6.6058325e+02   6.5949469e+02   6.5622540e+02   6.5341687e+02   6.4815002e+02   6.4725061e+02   6.4411243e+02   6.4265753e+02   6.4159845e+02   6.3087097e+02   6.1024982e+02   6.0947229e+02   6.0891266e+02   6.0858093e+02   6.0149530e+02   5.8265930e+02   5.7405621e+02   5.7369202e+02   5.7429236e+02   5.7229999e+02   5.6377777e+02   5.5142102e+02   5.5183179e+02   5.5386005e+02   5.5275507e+02   5.4879846e+02   5.9462793e+02   5.2669434e+02   5.0237799e+02   4.9179880e+02   4.8307639e+02   4.7779721e+02   4.7083755e+02   4.5867099e+02   4.5786646e+02   4.5804132e+02   4.4734933e+02   4.3314999e+02   4.3242099e+02   4.1570624e+02   4.0695755e+02   4.0454849e+02   3.9371518e+02   3.8215524e+02   3.8114999e+02   3.7019946e+02   3.5968350e+02   3.5854413e+02   3.5882748e+02   3.4966763e+02   3.4436520e+02   3.3234360e+02   3.3942569e+02   3.4403568e+02   3.5228122e+02   3.4187311e+02   3.3301181e+02   3.1924136e+02   3.0935147e+02   3.0315692e+02   2.9655234e+02   2.9659323e+02   2.7514999e+02   2.7542099e+02   2.7460297e+02   2.5414998e+02   2.3589296e+02   2.1820560e+02   2.1280173e+02   2.0514999e+02   1.9343474e+02   1.8619479e+02   1.8592053e+02   1.7224211e+02   1.6654886e+02   1.6051617e+02   1.5849756e+02   1.5817519e+02   1.5523093e+02   1.5314999e+02   1.3864737e+02   1.3787900e+02   1.3399570e+02   1.2974290e+02   1.2823395e+02   1.2596113e+02   1.2222270e+02   1.1933335e+02   1.1241027e+02   1.1021469e+02   1.0403999e+02   1.0007431e+02   9.8173767e+01   9.7393951e+01   9.5150002e+01   9.4788689e+01   9.2779922e+01   9.2042122e+01   8.9377625e+01   8.9150002e+01   8.7507866e+01   8.2660484e+01   8.0150002e+01   8.0150002e+01   7.6190193e+01   7.4971863e+01   7.4351517e+01   7.0150002e+01   6.9741005e+01   6.7341705e+01   6.6150002e+01   6.6150002e+01   6.4821297e+01   6.1630615e+01   5.8325390e+01   5.8150002e+01   4.9500843e+01   4.8150002e+01   4.1312332e+01   4.1150002e+01   3.9150002e+01   3.6054626e+01   3.3700813e+01   2.9397738e+01   2.8766005e+01   2.7664679e+01   2.6420988e+01   2.5640600e+01   2.4107092e+01   2.3150000e+01   2.2150000e+01   1.9034826e+01   1.6696981e+01   1.1446582e+01   3.1233468e+00             NaN             NaN             NaN             NaN             NaN             NaN             NaN             NaN             NaN             NaN             NaN             NaN             NaN             NaN             NaN             NaN             NaN             NaN             NaN             NaN             NaN             NaN             NaN             NaN             NaN             NaN             NaN             NaN             NaN             NaN             NaN             NaN             NaN             NaN             NaN             NaN
